# .PCD v0.7 - Point Cloud Data file format
VERSION 0.7
FIELDS x y z rgb
SIZE 4 4 4 4
TYPE F F F F
COUNT 1 1 1 1
WIDTH 945
HEIGHT 1
VIEWPOINT 0 0 0 1 0 0 0
POINTS 945
DATA ascii
-0.8753978 -1.342802 0.73930842 2.2112448e-39
-0.86207932 -1.3428017 0.74436986 2.303439e-39
-0.83718276 -1.3428013 0.74451435 2.3034404e-39
-0.81265992 -1.3428013 0.7442255 2.3952759e-39
-0.7877633 -1.3428013 0.74436975 2.3956346e-39
-0.76252359 -1.3428013 0.74436986 2.4874701e-39
-0.73763573 -1.3428013 0.74432158 2.4874715e-39
-0.71274543 -1.3428011 0.74436975 2.4878303e-39
-0.68750608 -1.3428011 0.74436975 2.5796658e-39
-0.66261727 -1.3428012 0.74441803 2.5796658e-39
-0.63772869 -1.3428011 0.74436986 2.6718614e-39
-0.61248946 -1.3428011 0.74436998 2.6718614e-39
-0.58760393 -1.3428011 0.74451464 2.7636969e-39
-0.56271249 -1.3428006 0.74436998 2.7640556e-39
-0.53747326 -1.3428005 0.7443701 2.764057e-39
-0.51223373 -1.3428006 0.74437004 2.8562512e-39
-0.48699442 -1.3428005 0.74437004 2.8562512e-39
-0.46209639 -1.3428005 0.74422574 2.8562512e-39
-0.43721551 -1.3428005 0.74437022 2.9484469e-39
-0.41232288 -1.3428005 0.74432194 2.9480881e-39
-0.38743749 -1.3428005 0.74437022 3.0402824e-39
-0.36255312 -1.3428004 0.74441832 3.0402824e-39
-0.33802518 -1.3428003 0.744515 3.0406425e-39
-0.3131229 -1.3428003 0.74437034 3.132478e-39
-0.28788343 -1.3428003 0.74437034 3.1328367e-39
-0.26264408 -1.3428003 0.74437076 3.1328367e-39
-0.23740475 -1.3428003 0.74437046 3.2246736e-39
-0.21216531 -1.3428001 0.7443704 3.2250324e-39
-0.18692593 -1.3428001 0.7443707 3.3168679e-39
-0.16168655 -1.3428001 0.74437082 3.3168693e-39
-0.13644716 -1.3428 0.74437088 3.317228e-39
-0.11187509 -1.3428 0.74417228 3.4090635e-39
-0.088105477 -1.3428 0.7445693 3.4090635e-39
-0.06353341 -1.3428 0.74437112 3.4094236e-39
-0.038294036 -1.3428 0.74437112 3.5012591e-39
-0.013054675 -1.3428 0.74437141 3.5012591e-39
0.012184691 -1.3427999 0.74437147 3.5934547e-39
0.037424054 -1.3427999 0.74437147 3.5934547e-39
0.062663421 -1.3427998 0.74437147 3.5934547e-39
0.087902777 -1.3427998 0.74437129 3.685649e-39
0.11314213 -1.3427998 0.74437129 3.6856504e-39
0.13838148 -1.3427998 0.74437159 3.6856504e-39
0.16329353 -1.3427998 0.74451596 3.7778446e-39
0.1878148 -1.3427998 0.74441975 3.7778446e-39
0.21196589 -1.3427998 0.74417323 3.8696815e-39
0.23653452 -1.3427993 0.74437159 3.8700402e-39
0.26177391 -1.3427992 0.74437177 3.8700416e-39
0.2870132 -1.3427992 0.74437165 3.9618771e-39
0.31225252 -1.3427992 0.74437165 3.9622359e-39
0.33749187 -1.3427992 0.74437165 3.9622359e-39
0.36273113 -1.3427991 0.74437171 4.0540728e-39
0.38797051 -1.3427991 0.74437183 4.0544315e-39
0.41287124 -1.3427989 0.74451631 4.0544315e-39
0.43774697 -1.3427989 0.74437177 4.146267e-39
0.46263906 -1.3427989 0.74441993 4.1466271e-39
0.48752418 -1.3427986 0.74437183 4.2384626e-39
0.51241028 -1.3427981 0.74432367 4.2384626e-39
0.53730214 -1.3427987 0.74437213 4.2388214e-39
0.56254125 -1.3427976 0.74437207 4.3306583e-39
0.58742589 -1.3427976 0.74422759 4.3306583e-39
0.61232013 -1.3427975 0.74437207 4.331017e-39
0.63755924 -1.3427975 0.74437213 4.4228525e-39
0.66244894 -1.3427975 0.74451667 4.4228539e-39
0.68733573 -1.3427975 0.74437219 4.5150481e-39
0.71257496 -1.3427975 0.74437225 4.5150481e-39
0.73746282 -1.3427974 0.74442017 4.5150481e-39
0.76235211 -1.3427973 0.74437261 4.6072437e-39
0.78759146 -1.3427973 0.74437231 4.6072437e-39
0.81248218 -1.3427973 0.74432427 4.6990792e-39
0.83736926 -1.3427973 0.74437267 4.699438e-39
0.86260867 -1.3427972 0.74437261 4.6994394e-39
0.88784784 -1.3427968 0.74437243 4.7912749e-39
0.90747845 -1.3427969 0.74437267 4.7916336e-39
-0.85998368 -1.3430598 0.76371801 2.9480867e-39
-0.83743912 -1.3430427 0.76413995 2.8562512e-39
-0.81252551 -1.343069 0.7642867 3.040281e-39
-0.78761369 -1.3430727 0.76435423 3.0406411e-39
-0.76269799 -1.3430692 0.76428646 3.0406411e-39
-0.73760974 -1.343069 0.7642864 3.1324752e-39
-0.71252173 -1.3430691 0.76428676 3.1324766e-39
-0.68743348 -1.343069 0.7642864 3.2246708e-39
-0.66234517 -1.3430692 0.76428652 3.2246708e-39
-0.63760978 -1.3430763 0.76432908 3.2246708e-39
-0.61286604 -1.3430686 0.76428652 3.3165063e-39
-0.58777773 -1.3430688 0.76428694 3.3168665e-39
-0.56268978 -1.3430687 0.76428658 3.3168679e-39
-0.5377813 -1.3430725 0.76444852 3.4090621e-39
-0.51286292 -1.3430688 0.76428664 3.4090607e-39
-0.48777473 -1.3430687 0.76428688 3.4090621e-39
-0.4626866 -1.3430686 0.7642867 3.5008976e-39
-0.43759853 -1.3430686 0.76428682 3.5008962e-39
-0.41251028 -1.3430686 0.76428723 3.5930904e-39
-0.38759792 -1.3430724 0.76426113 3.5930918e-39
-0.36268222 -1.3430685 0.76428723 3.5930918e-39
-0.337594 -1.3430686 0.76428753 3.685286e-39
-0.31250584 -1.3430686 0.76428717 3.6852874e-39
-0.28759304 -1.3430711 0.76430839 3.6852874e-39
-0.26267812 -1.3430674 0.76428729 3.6852874e-39
-0.23758994 -1.3430674 0.76428735 3.7774831e-39
-0.21267916 -1.3430698 0.76435506 3.7774831e-39
-0.18794249 -1.3430697 0.76440251 3.8696773e-39
-0.16302375 -1.3430659 0.76428717 3.8696773e-39
-0.13811994 -1.3430696 0.76444954 3.8696773e-39
-0.11319713 -1.3430663 0.76428711 3.8696773e-39
-0.088108964 -1.3430667 0.76428729 3.9618715e-39
-0.063020855 -1.3430657 0.76428753 3.9618729e-39
-0.037932724 -1.3430657 0.76428765 4.0537084e-39
-0.012844608 -1.3430663 0.76428741 4.0537084e-39
0.01224351 -1.3430661 0.76428777 4.0540686e-39
0.03733163 -1.3430662 0.76428777 4.1459041e-39
0.062419746 -1.3430659 0.76428789 4.1459041e-39
0.087507866 -1.3430657 0.76428777 4.1462642e-39
0.11259595 -1.3430656 0.76428795 4.2380997e-39
0.13768405 -1.3430656 0.76428801 4.2380997e-39
0.16277212 -1.3430655 0.76428819 4.2380997e-39
0.18786027 -1.3430657 0.76428872 4.3302939e-39
0.21294837 -1.3430654 0.7642886 4.3302953e-39
0.2380365 -1.3430655 0.76428831 4.3306555e-39
0.26295543 -1.3430691 0.76445043 4.3306555e-39
0.2876918 -1.3430691 0.7644037 4.4224909e-39
0.31260175 -1.3430654 0.76428872 4.4224895e-39
0.33768988 -1.3430653 0.76428878 4.4224895e-39
0.3626045 -1.3430692 0.76435649 4.5146852e-39
0.38751709 -1.3430653 0.76428849 4.5146852e-39
0.41260526 -1.3430649 0.76428908 4.5150453e-39
0.43751961 -1.3430685 0.76430929 4.6068808e-39
0.46243286 -1.3430647 0.7642886 4.6068808e-39
0.48752081 -1.3430642 0.76428872 4.6987149e-39
0.51260906 -1.3430642 0.76428854 4.6990764e-39
0.53769708 -1.3430643 0.76428872 4.7909119e-39
0.56278515 -1.343064 0.76428902 4.7909105e-39
0.58787316 -1.3430642 0.76428932 4.7912707e-39
0.61279058 -1.3430678 0.76426315 4.7912707e-39
0.63770109 -1.3430641 0.76428938 4.8831076e-39
0.66261542 -1.343068 0.76445109 4.8834663e-39
0.68752748 -1.3430638 0.7642892 4.9753018e-39
0.71261561 -1.3430643 0.7642895 4.9753018e-39
0.73770356 -1.343064 0.7642898 4.9756605e-39
0.76261926 -1.3430679 0.7644043 5.067496e-39
0.78753048 -1.3430638 0.76428944 5.067496e-39
0.81261855 -1.3430637 0.7642892 5.067496e-39
0.83770639 -1.3430637 0.76428914 5.1596916e-39
0.86279464 -1.3430637 0.76428962 5.1596916e-39
0.88788265 -1.3430636 0.7642895 5.1596916e-39
0.90690756 -1.3430277 0.76363868 5.159693e-39
0.40702283 -1.8625109 0.79715073 1.6410822e-38
0.72136301 -1.7906196 0.79367566 8.1074084e-39
-0.7135725 -1.7530873 0.79869169 5.5317378e-40
0.69685507 -1.7527752 0.79657602 1.9453278e-38
0.7070334 -1.7663606 0.79610145 1.7239494e-38
-0.72872818 -1.7470835 0.79932654 6.4536941e-40
-0.72456557 -1.7492052 0.7983005 6.4536941e-40
-0.55038524 -1.7454458 0.79634982 7.0068665e-39
-0.54869002 -1.7347454 0.78839368 6.1774659e-39
0.67066115 -1.7281935 0.79631221 1.5764e-38
0.68363434 -1.7391984 0.79670572 1.8807908e-38
-0.54537183 -1.7138038 0.78812104 6.4540542e-39
-0.2022581 -1.7002468 0.79986042 1.9914256e-38
-0.19729096 -1.7003689 0.7997998 1.8162539e-38
0.49885362 -1.7121675 0.79393613 1.2630448e-38
0.51235193 -1.706448 0.79653174 1.2077635e-38
0.53205055 -1.7088863 0.79216075 1.2077632e-38
0.61751473 -1.7017045 0.79727882 1.68718e-38
0.63821769 -1.7093943 0.79633212 1.7424974e-38
0.65857083 -1.7200342 0.79689342 1.8070343e-38
-0.54508865 -1.6879262 0.78677994 5.6242936e-39
-0.23675923 -1.6845306 0.79678994 2.3048907e-38
-0.2129686 -1.6898818 0.79579002 2.2219147e-38
-0.18732299 -1.6904194 0.79576707 2.0836212e-38
-0.16381752 -1.6851408 0.79648268 1.8807908e-38
-0.14725 -1.6768836 0.79863751 1.4382518e-38
0.54353744 -1.6976391 0.79559547 1.6410822e-38
0.56278455 -1.6955584 0.79663646 1.6410822e-38
0.587879 -1.6961606 0.79633522 1.6410822e-38
0.60455644 -1.6984398 0.79556638 1.4750211e-38
-0.55073905 -1.6528399 0.78827423 5.6242936e-39
-0.54853666 -1.6661361 0.78753287 5.5320979e-39
-0.25703618 -1.661293 0.79634196 2.3509886e-38
-0.2373307 -1.6628007 0.79484707 2.3509886e-38
-0.21241967 -1.6622097 0.79484528 2.3509886e-38
-0.18750396 -1.6630374 0.79484349 2.3509886e-38
-0.16259392 -1.662697 0.79484147 2.3509886e-38
-0.14198983 -1.6604527 0.79607254 1.8623517e-38
-0.55809557 -1.6373072 0.78745055 5.3477067e-39
-0.26199856 -1.6381031 0.7959432 2.3509886e-38
-0.23784479 -1.6378809 0.79484481 2.3509886e-38
-0.21311152 -1.6375797 0.79484278 2.3509886e-38
-0.18781662 -1.6378881 0.79484081 2.3509886e-38
-0.16199337 -1.6378908 0.79483938 2.3509886e-38
-0.13824309 -1.6379302 0.79554552 2.1020604e-38
0.36030596 -1.6258906 0.797454 2.2109267e-39
-0.82539052 -1.6064001 0.78605509 2.9506203e-39
-0.82190287 -1.6029133 0.78792667 3.1346514e-39
-0.5777424 -1.6032025 0.78713477 4.978564e-39
-0.56948179 -1.6150744 0.78800249 5.1633154e-39
-0.25971925 -1.6176594 0.79555011 2.3509886e-38
-0.23755322 -1.6138036 0.7948426 2.3509886e-38
-0.21243364 -1.6136979 0.79484016 2.3509886e-38
-0.1873177 -1.613592 0.79483789 2.3509886e-38
-0.16411182 -1.6154747 0.79483759 2.3509886e-38
-0.14558455 -1.6216861 0.79483581 2.3509886e-38
0.36025742 -1.610606 0.7874375 4.147744e-39
-0.80952007 -1.5905316 0.78757453 3.0424558e-39
-0.79723912 -1.578252 0.78867847 3.0424558e-39
-0.60286671 -1.5780762 0.787875 4.3331946e-39
-0.59027612 -1.590668 0.78738552 4.517946e-39
-0.22944032 -1.596725 0.794842 2.3509886e-38
-0.21204615 -1.5967321 0.79483813 2.3509886e-38
-0.18990703 -1.596735 0.7948367 2.3509886e-38
-0.15227528 -1.5811192 0.79249102 2.3509886e-38
0.36823422 -1.5879799 0.78773034 4.0548295e-39
0.3770611 -1.5764397 0.78592736 4.1477468e-39
0.45688543 -1.5827088 0.78685445 6.8210711e-39
-0.78414685 -1.5691016 0.78748679 2.9506203e-39
-0.76211721 -1.5578481 0.78731102 2.7665892e-39
-0.74616617 -1.5505483 0.78788674 2.7665892e-39
-0.65332246 -1.5506622 0.78742933 3.0435348e-39
-0.63754976 -1.557981 0.78763008 3.4119586e-39
-0.61536962 -1.5693269 0.78752333 4.0569678e-39
-0.22754408 -1.5679889 0.79249597 2.3509886e-38
-0.2034037 -1.5614934 0.79249597 2.3509886e-38
-0.19407688 -1.5614952 0.79249501 2.3509886e-38
-0.16921712 -1.5634687 0.79584408 1.6410822e-38
0.38934854 -1.5683262 0.78778493 3.6867686e-39
0.41232818 -1.5622958 0.78855538 7.0983474e-39
0.43708038 -1.5673147 0.78722167 4.8856747e-39
-0.73377067 -1.5485455 0.78797275 2.582558e-39
-0.71240687 -1.5451609 0.78720772 2.4900023e-39
-0.68748838 -1.5451652 0.78745681 2.5821993e-39
-0.66609585 -1.5485556 0.78781182 2.7669493e-39
-0.05799076 -1.5072852 0.79809117 1.1779175e-40
0.08675456 -1.5041422 0.79985863 8.618462e-40
-0.051634341 -1.4981914 0.79631448 1.1779175e-40
-0.038938362 -1.4853715 0.79674906 1.1779175e-40
0.062326428 -1.4854672 0.79291385 3.0254314e-40
0.080518566 -1.4959747 0.79757684 3.0506688e-40
-0.026933391 -1.4747369 0.79942071 1.1779175e-40
-0.010777654 -1.4692119 0.79601705 1.1779175e-40
0.013144289 -1.4644883 0.79680818 1.1779175e-40
0.036802284 -1.4686613 0.79609156 1.1779175e-40
0.053134531 -1.4735419 0.7978282 3.0254454e-40
0.57261729 -1.9617991 0.81035733 1.7793757e-38
0.5838607 -1.9580983 0.81714743 1.834693e-38
0.60305154 -1.9513031 0.82169509 1.9914256e-38
0.56714422 -1.935371 0.80407828 2.3509886e-38
0.58769077 -1.9369508 0.81993806 2.3509886e-38
0.60655022 -1.9428724 0.82126749 1.9914256e-38
0.56680024 -1.9125501 0.81633204 2.3509886e-38
0.58602327 -1.9138665 0.8199439 2.3509886e-38
0.60163224 -1.9225724 0.81994957 2.3509886e-38
0.40830207 -1.8814554 0.81807131 1.6410822e-38
0.563573 -1.885614 0.81994045 2.3233299e-38
0.5766747 -1.8951161 0.81994611 2.3509886e-38
0.40706885 -1.8616681 0.8120724 1.6410822e-38
0.54668099 -1.8595333 0.81993788 2.3509886e-38
0.55710858 -1.8609862 0.81994396 2.3509886e-38
0.40733615 -1.8481178 0.80562901 1.6410822e-38
0.71647012 -1.7812481 0.80952889 1.9914256e-38
-0.71207952 -1.7534804 0.81223387 4.6133688e-40
-0.68972301 -1.7538898 0.81460482 4.6097815e-40
0.69728053 -1.7533022 0.81288308 1.9361082e-38
0.70582831 -1.7643979 0.81328487 1.9545474e-38
-0.7373783 -1.7395145 0.81330031 6.4536941e-40
-0.72377747 -1.7496067 0.81387556 5.5317378e-40
-0.67616439 -1.7496146 0.82248223 4.6133688e-40
-0.6690411 -1.7454246 0.82165641 4.6097815e-40
-0.55053926 -1.7464232 0.82025737 7.2838135e-39
-0.54861271 -1.7342629 0.81113768 7.0994236e-39
0.67068887 -1.7281367 0.81282014 1.8439126e-38
0.68443346 -1.7399153 0.81276774 1.8807908e-38
-0.75265026 -1.7160934 0.81923991 8.2976067e-40
-0.74955016 -1.7238712 0.81426364 7.3792517e-40
-0.54536194 -1.7137437 0.81339073 7.1916193e-39
-0.25174201 -1.7020658 0.82354021 2.2126951e-38
-0.23475184 -1.7062941 0.81708503 2.0836212e-38
-0.2124977 -1.710163 0.81349766 1.9176691e-38
-0.18775004 -1.7104844 0.81354946 1.7056192e-38
-0.163555 -1.7063977 0.81711626 1.4843496e-38
-0.14713071 -1.7024323 0.82336348 1.2907388e-38
0.49935207 -1.7118775 0.81634927 1.5396672e-38
0.51252115 -1.7063257 0.81254452 1.3921543e-38
0.53245342 -1.7035267 0.8126356 1.4659109e-38
0.61819446 -1.7018663 0.81367642 1.68718e-38
0.63719207 -1.7088962 0.8122471 1.7424974e-38
0.65820098 -1.7197702 0.81237543 1.7978148e-38
-0.54507363 -1.68802 0.81187087 7.1916193e-39
-0.27658552 -1.6755782 0.823044 2.3509886e-38
-0.2601482 -1.6860375 0.81499875 2.3048907e-38
-0.24001271 -1.6932231 0.80584925 2.2495734e-38
-0.21371607 -1.6990725 0.80044407 2.046743e-38
-0.18263023 -1.6990954 0.80096179 1.7424974e-38
-0.15889297 -1.6936558 0.80572307 1.5120083e-38
-0.13928266 -1.6869282 0.81456101 1.3183975e-38
-0.12339684 -1.6784118 0.82347316 1.1893236e-38
0.54384065 -1.6975298 0.81254047 1.6410822e-38
0.56232995 -1.6955627 0.81329983 1.6410822e-38
0.5872848 -1.6960654 0.81291401 1.6410822e-38
0.60542381 -1.6986184 0.81139928 1.6503018e-38
-0.55067432 -1.6531124 0.81284022 6.9150324e-39
-0.54849344 -1.666412 0.81321526 7.1912591e-39
-0.27990848 -1.660194 0.81833076 2.3509886e-38
-0.26775274 -1.6647936 0.80689859 2.3509886e-38
-0.13110752 -1.6655748 0.80662191 1.3183975e-38
-0.11884503 -1.6612788 0.818205 1.1801041e-38
-0.55804646 -1.6374042 0.8126362 6.7306411e-39
-0.28286505 -1.6377851 0.8149125 2.3509886e-38
-0.27233195 -1.6406101 0.80251563 2.3509886e-38
-0.12733562 -1.645866 0.80162269 1.3460562e-38
-0.11643697 -1.6369299 0.81341672 1.2169823e-38
-0.82659531 -1.6076078 0.81055331 3.6881853e-39
-0.82213926 -1.603153 0.8128708 3.7800208e-39
-0.57815534 -1.6027882 0.81252289 6.0852717e-39
-0.56939346 -1.6152477 0.81255788 6.3618586e-39
-0.28280705 -1.6157424 0.81527907 2.3509886e-38
-0.27225465 -1.6127247 0.80289853 2.3509886e-38
-0.11089809 -1.6113838 0.82019746 1.1340062e-38
0.36062631 -1.6075624 0.81237435 1.5655657e-39
-0.8097012 -1.5907173 0.81300932 3.780381e-39
-0.7970587 -1.5780761 0.81184763 3.7800208e-39
-0.60297638 -1.5779674 0.81229848 5.3477067e-39
-0.59066242 -1.5902814 0.81267184 5.8086848e-39
-0.28015447 -1.5938265 0.81844348 2.0651821e-38
-0.27261013 -1.5969671 0.80899721 2.3509886e-38
-0.12974122 -1.580894 0.80506557 9.4039542e-39
-0.11619414 -1.5854263 0.81794268 9.4039542e-39
0.36854121 -1.5873407 0.81264406 1.4737288e-39
0.37694693 -1.5765332 0.81330562 1.0134751e-39
0.45727465 -1.5831832 0.81220514 1.9350937e-39
-0.78400731 -1.5690219 0.81253952 3.6881853e-39
-0.76259589 -1.5580918 0.81226897 3.5045143e-39
-0.74615723 -1.5505532 0.81249189 3.3201245e-39
-0.65332872 -1.5506365 0.81285775 3.7811012e-39
-0.63763934 -1.5579362 0.81257683 4.2420794e-39
-0.61547482 -1.5692868 0.81246465 5.0711198e-39
-0.27754027 -1.5739577 0.82106 9.4039542e-39
-0.26261282 -1.5609729 0.81687421 9.4039542e-39
-0.24205613 -1.5532538 0.80812883 9.4039542e-39
-0.17683564 -1.5501885 0.8021996 9.4039542e-39
-0.15737717 -1.5534363 0.80686539 9.4039542e-39
-0.13743095 -1.5602193 0.81579661 9.4039542e-39
-0.12054095 -1.5720897 0.82378888 1.0602497e-38
0.38912547 -1.5684206 0.81207937 1.3818933e-39
0.41208959 -1.5623157 0.81348711 6.4529822e-39
0.4373529 -1.5674692 0.81250644 1.4744603e-39
-0.73381674 -1.5485535 0.81338328 3.3201231e-39
-0.71280825 -1.5452259 0.81219196 3.1357332e-39
-0.68724847 -1.5452042 0.81205648 3.2279288e-39
-0.66611195 -1.5485539 0.81303591 3.59671e-39
-0.25388581 -1.5498434 0.82158905 9.4039542e-39
-0.23583815 -1.5422877 0.81810278 9.4039542e-39
-0.21214455 -1.5385966 0.81388968 9.4039542e-39
-0.18791716 -1.5381939 0.81404847 9.4039542e-39
-0.16362444 -1.5423883 0.81713885 9.4039542e-39
-0.1463418 -1.5475669 0.82280123 9.4039542e-39
-0.067879185 -1.5363314 0.81841987 1.1779175e-40
0.09968584 -1.5354819 0.81715178 7.7505958e-40
0.10000551 -1.5386631 0.80848247 7.7541972e-40
-0.059262961 -1.5094013 0.812437 1.1779175e-40
0.091487505 -1.5120087 0.81246239 8.6437134e-40
-0.051230304 -1.4959708 0.8113156 1.1779175e-40
-0.038721621 -1.482982 0.81294513 1.1779175e-40
0.066470996 -1.4810581 0.81286675 8.6040566e-40
0.080199324 -1.4937559 0.81255752 8.62928e-40
-0.026719803 -1.4741747 0.81335694 1.1779175e-40
-0.012369695 -1.4678553 0.81207484 1.1779175e-40
0.012737167 -1.4634467 0.8129763 1.1779175e-40
0.037361078 -1.4665759 0.81300795 4.8729594e-40
0.053454768 -1.4724622 0.8118273 7.6640656e-40
0.27059484 -1.4306238 0.8248378 2.3063355e-39
0.24306859 -1.4054415 0.82461959 9.2267937e-40
0.59065384 -2.0072384 0.84899682 2.3509886e-38
0.61181027 -2.0087039 0.84841955 2.3509886e-38
0.61591101 -1.9956436 0.84956837 2.3509886e-38
0.6380738 -1.9925638 0.84901738 2.341769e-38
0.65971875 -1.9840804 0.84763658 2.0743292e-38
0.67537975 -1.9795589 0.84798944 2.3509886e-38
0.57297546 -1.9637712 0.83787239 1.6410822e-38
0.5877834 -1.9579018 0.83777976 1.6410822e-38
0.60399407 -1.9514743 0.83639336 1.6410822e-38
0.6579895 -1.9649438 0.84875411 2.2403538e-38
0.68209469 -1.9610875 0.84896702 2.3509886e-38
0.61151338 -1.9484937 0.84073162 1.6410822e-38
0.65403754 -1.9431559 0.84949738 2.1112799e-38
0.69172949 -1.9404607 0.84945375 2.3509886e-38
0.70500761 -1.9353871 0.84858227 2.3509886e-38
0.41871047 -1.9146633 0.84490955 1.9545474e-38
0.71284348 -1.9121505 0.84886909 2.3509886e-38
0.4117538 -1.8852514 0.845581 1.9361082e-38
0.58033437 -1.8834022 0.82502538 2.2587569e-38
0.71517903 -1.8893627 0.84929144 2.3509886e-38
0.72697401 -1.8884251 0.8481003 2.3509886e-38
-0.70212972 -1.8563789 0.83289921 1.2079788e-38
-0.69858885 -1.8563792 0.83289909 1.2079788e-38
0.40771821 -1.8607348 0.83834898 1.7332778e-38
0.5710699 -1.8626361 0.82502747 1.5672898e-38
0.57881874 -1.8699998 0.82502902 1.6226071e-38
0.71823061 -1.8636394 0.84931636 2.3509886e-38
0.7278322 -1.8629433 0.84830892 2.3509886e-38
-0.78113383 -1.8301836 0.83290696 1.2723356e-38
-0.76199323 -1.8337964 0.83290458 1.2907746e-38
-0.73799956 -1.8384807 0.83290195 1.2907385e-38
-0.71285367 -1.8388784 0.83290046 1.2538963e-38
-0.6876753 -1.8388782 0.83290011 1.2631157e-38
-0.66249657 -1.8388779 0.8329007 1.2907385e-38
-0.63959694 -1.8348693 0.8328988 1.2907387e-38
-0.62016612 -1.8302089 0.83289576 1.2815551e-38
0.40738279 -1.8470986 0.84076679 1.6410822e-38
0.56525677 -1.8436583 0.82503122 1.8899745e-38
0.71692502 -1.8357079 0.84921676 2.3509886e-38
0.72915488 -1.8389722 0.84747052 2.3509886e-38
-0.80707026 -1.8063091 0.83290446 1.3092137e-38
-0.7876786 -1.8122832 0.83290684 1.2999581e-38
-0.76221615 -1.8134625 0.83290607 1.281519e-38
-0.73672062 -1.8130999 0.83290339 1.2723353e-38
-0.71241522 -1.8131038 0.83290154 8.9440551e-39
-0.68810844 -1.8131047 0.83290112 8.8518595e-39
-0.66320902 -1.8127183 0.83290154 1.2722994e-38
-0.63776439 -1.8131096 0.83289856 1.281519e-38
-0.61288065 -1.8131166 0.83289582 1.2999581e-38
-0.59450603 -1.807456 0.83289593 1.3091778e-38
0.71298116 -1.810142 0.8488853 2.3509886e-38
0.72627628 -1.8190086 0.84729993 2.3509886e-38
-0.82881755 -1.7823938 0.83290076 1.2999582e-38
-0.81213075 -1.7871671 0.83290195 1.281555e-38
-0.78697342 -1.7882953 0.8329041 1.2723354e-38
-0.76318705 -1.7887858 0.83290607 1.2446767e-38
-0.73913503 -1.7951826 0.83290488 1.2446409e-38
-0.72400093 -1.7962273 0.83290315 1.2170542e-38
-0.68656647 -1.7953047 0.83290201 8.391603e-39
-0.66151661 -1.7893037 0.8329019 1.2262017e-38
-0.63761318 -1.7875664 0.83289957 1.2446409e-38
-0.61245412 -1.7879299 0.83289862 1.2723354e-38
-0.58842647 -1.7879317 0.8328979 1.281555e-38
-0.57184803 -1.7817128 0.83289719 1.2907746e-38
0.69371778 -1.7825619 0.84951192 2.3509886e-38
0.71180964 -1.7866865 0.8450473 2.2864516e-38
-0.83438843 -1.7614455 0.83290088 1.281555e-38
-0.81282163 -1.7633138 0.83290213 1.26308e-38
-0.78736824 -1.7633111 0.83290321 1.2538604e-38
-0.77095139 -1.7693948 0.83290368 1.2262378e-38
-0.73340106 -1.7550811 0.84531009 4.4253874e-39
-0.71152097 -1.7552822 0.83710796 1.6595199e-39
-0.68865079 -1.7557625 0.8379038 1.8439112e-39
-0.66335714 -1.757811 0.8428278 5.9005175e-39
-0.63692337 -1.7633137 0.8329019 1.1801398e-38
-0.61260337 -1.7633153 0.83290064 1.2538604e-38
-0.58771819 -1.7636895 0.83289874 1.26308e-38
-0.56620246 -1.7611617 0.83289713 1.281555e-38
0.66750848 -1.753276 0.8496384 2.3509886e-38
0.68921405 -1.7601026 0.84618455 2.2864516e-38
0.70538008 -1.766189 0.83928472 2.1204995e-38
-0.83700651 -1.7392559 0.83290249 1.2907385e-38
-0.8118394 -1.7392553 0.83290309 1.2631159e-38
-0.79050064 -1.7397192 0.8329038 1.2538603e-38
-0.7551294 -1.733302 0.84531367 4.4253874e-39
-0.7384693 -1.7392319 0.83659458 1.4751301e-39
-0.72398317 -1.749501 0.83738595 8.2976067e-40
-0.67622972 -1.7496481 0.84101665 9.219563e-40
-0.66301703 -1.7419622 0.83853489 1.936467e-39
-0.63716626 -1.737668 0.83786666 7.9288228e-39
-0.61274225 -1.7389129 0.83290148 1.2354212e-38
-0.58758545 -1.7396239 0.83289933 1.2631159e-38
-0.56242067 -1.7389225 0.83289719 1.2907385e-38
-0.54782134 -1.7292696 0.83018953 7.652596e-39
0.51257968 -1.7297016 0.84955382 2.3509886e-38
0.5300101 -1.7263088 0.84989291 2.3509886e-38
0.56257564 -1.7356266 0.84894854 2.2680125e-38
0.61807054 -1.7265074 0.84980166 2.3509886e-38
0.64008224 -1.7316464 0.84941351 2.3509886e-38
0.6654098 -1.7336485 0.84411913 2.2034756e-38
0.68410438 -1.7416047 0.83879864 2.0651821e-38
-0.85307658 -1.7095543 0.83290946 1.161881e-38
-0.83748907 -1.711867 0.83290905 1.2354572e-38
-0.81264794 -1.7118676 0.83290881 9.8645695e-39
-0.79102421 -1.7109023 0.83290863 1.0510298e-38
-0.75586098 -1.7122519 0.8382771 2.2130538e-39
-0.74951518 -1.7239463 0.83543718 1.1063476e-39
-0.63419724 -1.7130643 0.84024471 5.4395408e-39
-0.61227393 -1.7118838 0.83290017 1.069433e-38
-0.58743358 -1.7118901 0.83289897 9.772734e-39
-0.56259322 -1.7118899 0.83289731 1.2354572e-38
-0.54695612 -1.7101659 0.83188254 1.0696132e-38
-0.25478584 -1.7038784 0.82663739 2.3509886e-38
-0.23665014 -1.7134745 0.82626498 2.2864516e-38
-0.21289387 -1.7209451 0.82675219 2.2956712e-38
-0.18793184 -1.7211254 0.82666659 2.2311342e-38
-0.16305891 -1.7146862 0.82642174 1.9914256e-38
-0.14412172 -1.7043451 0.82641387 2.0190843e-38
0.19195814 -1.7134618 0.84276968 4.0526084e-39
0.21283241 -1.7109894 0.84849405 1.1236958e-38
0.22976878 -1.7142582 0.83861607 8.0133813e-39
0.49961352 -1.7123736 0.84177929 1.7056192e-38
0.51301956 -1.7089795 0.83947331 1.8623517e-38
0.53583592 -1.7082589 0.84231406 2.046743e-38
0.56277448 -1.7097043 0.84854925 2.341769e-38
0.5878405 -1.7095824 0.84866679 2.341769e-38
0.61457777 -1.7070224 0.84298533 2.0836212e-38
0.63702542 -1.711535 0.83967894 1.9914256e-38
0.65749192 -1.7203158 0.83720839 1.9453278e-38
-0.85267884 -1.6851543 0.83291054 1.2539323e-38
-0.83796525 -1.6851559 0.83291 1.2446767e-38
-0.81180745 -1.6851581 0.83290881 9.9571238e-39
-0.78728437 -1.6851598 0.83290809 1.1155668e-38
-0.76219469 -1.6878891 0.84120297 4.4253888e-39
-0.63399249 -1.6876721 0.84044909 4.0566063e-39
-0.61289275 -1.6848458 0.83290142 1.1155667e-38
-0.58783239 -1.6851765 0.8329004 9.9571252e-39
-0.56275988 -1.6855048 0.83289927 1.2446767e-38
-0.54593337 -1.6867402 0.83007532 9.6808999e-39
-0.27787948 -1.6787926 0.82631415 2.3509886e-38
-0.26757658 -1.6919065 0.82647151 2.3509886e-38
-0.13147667 -1.6934952 0.82646275 2.046743e-38
-0.1212849 -1.6809808 0.82645911 1.9453278e-38
0.19365834 -1.6877862 0.84227687 4.3288324e-39
0.21172322 -1.6879791 0.84748882 1.1052928e-38
0.22721606 -1.689278 0.83997208 9.4870583e-39
0.54409766 -1.6977063 0.83595914 1.68718e-38
0.56268245 -1.6959088 0.83697271 1.7332778e-38
0.58746493 -1.6963557 0.83643758 1.7332778e-38
0.60544676 -1.6987791 0.83443737 1.7056192e-38
-0.83787012 -1.6631355 0.83290857 1.2907385e-38
-0.81249142 -1.6628176 0.83290726 1.2631159e-38
-0.78712416 -1.6624988 0.83290672 1.2354212e-38
-0.76098073 -1.6634115 0.83794451 6.7302782e-39
-0.74257028 -1.6561714 0.84507936 4.6097787e-39
-0.6573779 -1.65661 0.84413809 4.4250273e-39
-0.63984364 -1.663267 0.83864945 4.5175845e-39
-0.61249083 -1.662504 0.83290404 1.235457e-38
-0.58770108 -1.6628262 0.83290356 1.2631159e-38
-0.56145102 -1.6621754 0.83253092 1.2354572e-38
-0.54859197 -1.6657891 0.82964927 8.6667479e-39
-0.28657559 -1.662053 0.82648349 2.3509886e-38
-0.11156689 -1.6631621 0.82656902 1.982206e-38
0.19435705 -1.6623927 0.84220302 4.0526084e-39
0.21215595 -1.6630574 0.84667301 1.1236959e-38
0.22765131 -1.659042 0.84072381 1.2065991e-38
-0.83478642 -1.6398796 0.83290946 1.2907385e-38
-0.81326669 -1.6373655 0.83290946 1.26308e-38
-0.78771323 -1.6373653 0.83290923 1.2538603e-38
-0.76215941 -1.6373649 0.83290952 1.1617007e-38
-0.73670077 -1.6373649 0.83710957 5.623932e-39
-0.71257621 -1.6334784 0.84008318 3.595268e-39
-0.68716943 -1.6333818 0.84007138 3.5030724e-39
-0.66286999 -1.6389163 0.83777052 4.4253888e-39
-0.63758916 -1.6373726 0.83290577 1.1709202e-38
-0.61244607 -1.6370301 0.83290279 1.2538604e-38
-0.58769143 -1.6372646 0.8329019 1.26308e-38
-0.56257766 -1.6389796 0.83138329 1.1063833e-38
-0.29244784 -1.6361052 0.82639527 2.3509886e-38
-0.10587829 -1.6406851 0.82660806 1.9545474e-38
0.19407439 -1.6374302 0.84175318 3.8685787e-39
0.21187116 -1.6371642 0.84677404 1.1145124e-38
0.22757244 -1.636605 0.83951461 9.394864e-39
0.36037886 -1.6266626 0.83288503 1.6584844e-39
-0.82773912 -1.6142365 0.83274591 1.1247865e-38
-0.8132084 -1.6117446 0.83259273 1.2169822e-38
-0.78829402 -1.6128151 0.83291078 1.281519e-38
-0.76354861 -1.6125139 0.83290917 1.2446767e-38
-0.73830992 -1.6125145 0.83290887 1.217018e-38
-0.71307445 -1.6125213 0.83290559 1.0511022e-38
-0.68783611 -1.6125221 0.83290511 1.0326631e-38
-0.6625948 -1.6125164 0.83290797 1.217018e-38
-0.63735688 -1.6125191 0.83290666 1.2446409e-38
-0.61212039 -1.6125249 0.83290368 1.281519e-38
-0.58565885 -1.6106395 0.83209181 1.198543e-38
-0.57016325 -1.6155499 0.82991964 9.404313e-39
-0.29221186 -1.6150713 0.82666844 2.3509886e-38
-0.10548645 -1.613022 0.82676357 2.046743e-38
0.19447252 -1.6120446 0.84151059 4.3288324e-39
0.21214662 -1.6123304 0.84637022 1.1236959e-38
0.22759601 -1.6206954 0.83850783 9.0264444e-39
0.36067587 -1.6084517 0.83638954 1.9350685e-39
-0.80745578 -1.5932211 0.83151674 1.0049322e-38
-0.78724229 -1.5876409 0.83262873 1.2262016e-38
-0.76178598 -1.5882968 0.83290863 1.2723354e-38
-0.73685372 -1.5882964 0.83290869 1.2815188e-38
-0.71192473 -1.5883025 0.83290553 8.575274e-39
-0.68699294 -1.5883032 0.83290517 8.7596652e-39
-0.66244835 -1.5879667 0.8329078 1.281519e-38
-0.63791078 -1.5883003 0.8329066 1.281519e-38
-0.61118978 -1.5864478 0.8321088 1.1801038e-38
-0.59119672 -1.5923905 0.83050394 9.4961485e-39
-0.2845656 -1.5871121 0.82650787 2.1481582e-38
-0.11403655 -1.5843989 0.8267377 2.2219147e-38
0.19446591 -1.5868715 0.84061503 3.5923533e-39
0.21196228 -1.5881795 0.84584528 1.1144764e-38
0.22787993 -1.5863539 0.83506578 4.2366381e-39
0.36849761 -1.5874498 0.83664018 1.6588417e-39
0.37699303 -1.5764842 0.83927184 1.8432316e-39
0.45709512 -1.5831593 0.83710188 3.1343515e-39
-0.78326279 -1.5696789 0.83002967 7.0990635e-39
-0.76164216 -1.5624639 0.83128595 9.4965086e-39
-0.73853022 -1.5600562 0.83239561 1.1985789e-38
-0.71224457 -1.5614181 0.83290637 1.2722994e-38
-0.68726665 -1.5613185 0.83290607 1.2630798e-38
-0.66114998 -1.5596508 0.83213741 1.1708844e-38
-0.63823432 -1.5619053 0.83094317 9.2199217e-39
-0.61624312 -1.5694164 0.82962412 7.6525974e-39
-0.27648497 -1.5700717 0.82658911 9.4039542e-39
-0.26677552 -1.5601406 0.82657629 1.6410822e-38
-0.13403527 -1.5570743 0.82644808 2.046743e-38
-0.12376841 -1.5683047 0.82635069 1.89923e-38
0.19518508 -1.5624017 0.8402468 3.3157706e-39
0.21191758 -1.5625786 0.84486842 1.0960734e-38
0.38932273 -1.5683516 0.83709413 1.2904207e-39
0.4122732 -1.562284 0.83775008 6.5451779e-39
0.43686521 -1.5672095 0.83772641 1.6588515e-39
-0.73374957 -1.5485429 0.82904965 4.6108619e-39
-0.71195364 -1.5452096 0.82956851 5.5328182e-39
-0.68790019 -1.5452094 0.82937264 5.3487871e-39
-0.66579574 -1.5486045 0.82917428 5.0714799e-39
-0.25280216 -1.5484295 0.82638621 1.8807908e-38
-0.2368301 -1.5396469 0.82658893 1.7148387e-38
-0.21157701 -1.5320102 0.82592857 1.0510302e-38
-0.18729942 -1.5319929 0.82593793 1.3552758e-38
-0.16215295 -1.5389966 0.82640916 1.68718e-38
-0.1461238 -1.5471057 0.82651097 2.0098647e-38
-0.067192517 -1.5322212 0.8378064 1.1779175e-40
0.099147178 -1.5324289 0.83598471 8.6653354e-40
0.19633254 -1.5385592 0.83962715 3.0395467e-39
0.2120727 -1.538071 0.84383935 1.0960734e-38
-0.059253559 -1.5095639 0.83605695 1.1779175e-40
0.090590306 -1.5098987 0.83799177 8.6509161e-40
0.19709481 -1.5130852 0.83778161 2.2105133e-39
0.21203926 -1.5126113 0.84164166 9.5792525e-39
0.22546749 -1.5241327 0.83356905 0
-0.051654782 -1.4969169 0.83967131 1.1779175e-40
-0.038338553 -1.4827855 0.83771014 1.1779175e-40
0.066010393 -1.4808544 0.83770031 1.7801984e-39
0.079628021 -1.4930488 0.83716959 8.6328814e-40
0.19835052 -1.4878353 0.83687466 1.1052573e-39
0.21012802 -1.4876629 0.84088838 9.7636409e-39
-0.026379187 -1.4740579 0.83700848 1.1779175e-40
-0.012978741 -1.4680655 0.83735746 1.1779175e-40
0.011797655 -1.463583 0.83777452 2.5998641e-39
0.037984073 -1.466849 0.83744299 4.2575833e-39
0.054227684 -1.472913 0.83763832 5.7323533e-39
0.19843242 -1.4635837 0.83614016 3.6841818e-40
0.2095383 -1.4626875 0.84088308 9.9476721e-39
0.19650219 -1.4299967 0.84430587 4.9810962e-39
0.21118854 -1.4339073 0.84390295 6.6387972e-39
0.26922998 -1.4300023 0.83714342 3.78219e-39
0.14413586 -1.4045888 0.84284067 2.6751194e-39
0.16351292 -1.4047776 0.84194469 5.165486e-39
0.18538779 -1.4060949 0.83984655 3.689993e-39
0.21272475 -1.4108195 0.84439671 5.7193829e-39
0.23888668 -1.4065471 0.83869684 2.8595121e-39
0.25767368 -1.4166657 0.83586782 2.8598708e-39
0.14635055 -1.3969913 0.83582753 1.2914619e-39
0.15934721 -1.3978384 0.83501595 1.2911018e-39
0.19285952 -1.3992027 0.83473545 0
0.21203324 -1.3991275 0.83483845 0
0.22755252 -1.399356 0.83470529 9.2555764e-41
0.58825725 -1.9863139 0.85109615 2.3509886e-38
0.61010277 -1.9847652 0.850784 2.3509886e-38
0.62966239 -1.9839514 0.85021877 2.3509886e-38
0.57437897 -1.9632139 0.85057789 1.6410822e-38
0.58772242 -1.9624333 0.85247737 2.0651821e-38
0.61103684 -1.9598197 0.85318244 2.2403538e-38
0.63598949 -1.9661255 0.85139191 2.3509886e-38
0.66316801 -1.9560211 0.85065848 2.3509886e-38
0.61583334 -1.9427963 0.85340762 2.0836212e-38
0.63617349 -1.9383491 0.85325724 2.3509886e-38
0.66334742 -1.9358668 0.85163367 2.3509886e-38
0.6817174 -1.9358984 0.85049587 2.3509886e-38
0.61471123 -1.9114424 0.85337985 2.0098293e-38
0.63501376 -1.9109068 0.85341161 2.0375237e-38
0.66389954 -1.91248 0.85229802 2.129719e-38
0.68643737 -1.9122629 0.85125577 2.3509886e-38
0.70165354 -1.9066261 0.85017902 2.3509886e-38
0.59584194 -1.8827708 0.85431957 2.2680125e-38
0.61225533 -1.887077 0.85290682 1.7516819e-38
0.63895315 -1.8874192 0.85310155 1.8254383e-38
0.66050607 -1.8872311 0.85342312 2.2495734e-38
0.68748111 -1.8857358 0.85156584 2.2495734e-38
0.70470655 -1.8858544 0.85034072 2.3509886e-38
0.59150934 -1.8606542 0.85341877 2.0006457e-38
0.61236942 -1.8635921 0.85281157 1.475095e-38
0.63769412 -1.8635612 0.85282505 1.3460209e-38
0.66033763 -1.8605082 0.85391605 2.2495734e-38
0.68541223 -1.8629233 0.8514865 2.2034756e-38
0.70523953 -1.859756 0.85061967 2.3509886e-38
0.57451266 -1.833288 0.85432279 2.3509886e-38
0.58824372 -1.8360076 0.85296589 1.8070352e-38
0.61227298 -1.8368129 0.8528192 1.1985079e-38
0.63683605 -1.8372214 0.85283297 1.4843145e-38
0.66183269 -1.8363764 0.8536725 2.3048907e-38
0.68710452 -1.838459 0.85139072 2.3048907e-38
0.7046724 -1.8349986 0.85044235 2.3509886e-38
0.5699808 -1.8107008 0.85356462 2.1204998e-38
0.5874548 -1.8107027 0.85281199 1.6779256e-38
0.61217844 -1.810667 0.85282671 1.216947e-38
0.63867831 -1.8132969 0.85365665 2.0467434e-38
0.66249669 -1.8129369 0.85235119 2.2956712e-38
0.68821096 -1.8135874 0.85136575 2.3509886e-38
0.70196724 -1.8206146 0.85037094 2.3509886e-38
0.52100587 -1.7751964 0.85352051 2.3509886e-38
0.56391495 -1.7883754 0.85356855 2.0651825e-38
0.58747339 -1.7889365 0.85300952 1.7885961e-38
0.61327547 -1.786293 0.85380572 2.1481585e-38
0.63746506 -1.7885056 0.85300088 2.2864516e-38
0.66251838 -1.7877904 0.85166097 2.3233299e-38
0.68445951 -1.7919905 0.85079652 2.3509886e-38
0.51907593 -1.759183 0.85262436 2.2772321e-38
0.53737074 -1.7586728 0.85352153 2.2680125e-38
0.56307364 -1.7620443 0.85332638 2.3509886e-38
0.58753282 -1.7635897 0.85263181 2.2311342e-38
0.61244297 -1.76476 0.8526457 2.2495734e-38
0.6375668 -1.762194 0.85177618 2.3509886e-38
0.66151524 -1.7653838 0.85090047 2.3509886e-38
0.67731249 -1.7739758 0.8503598 2.3509886e-38
0.51730603 -1.7414335 0.85081619 2.3509886e-38
0.53871912 -1.7372178 0.851134 2.3509886e-38
0.56288552 -1.7361977 0.85139394 2.3233299e-38
0.58848959 -1.735528 0.85129112 2.3509886e-38
0.61166096 -1.737882 0.85099989 2.3509886e-38
0.63544559 -1.7431928 0.85063756 2.3509886e-38
0.65313858 -1.7497108 0.85019857 2.3509886e-38
0.20912947 -1.7213237 0.85036772 1.0408286e-38
0.58103871 -1.7249998 0.85049421 2.3509886e-38
0.36044216 -1.6100162 0.86194396 7.0828575e-39
0.36837652 -1.5877329 0.86186779 7.3598045e-39
0.3768453 -1.5766158 0.86265409 6.8077139e-39
0.45667392 -1.5824193 0.86232054 1.2331523e-38
0.38923797 -1.5684179 0.86236387 7.3551214e-39
0.41189373 -1.5623095 0.86187899 8.1996447e-39
0.43684196 -1.5672318 0.86286485 9.0110386e-39
-0.066465057 -1.5273232 0.85734886 1.1779175e-40
0.098475046 -1.5302951 0.86255091 8.6689368e-40
-0.060247757 -1.5114694 0.86293519 1.1779175e-40
0.090217307 -1.509469 0.86323744 8.6509161e-40
-0.051942687 -1.497506 0.86168528 1.1779175e-40
-0.038555693 -1.4831457 0.86291718 1.1779175e-40
0.065952592 -1.481077 0.86264384 4.538496e-39
0.079465643 -1.4930993 0.86242676 8.629294e-40
-0.02601679 -1.4738529 0.86202461 1.1779175e-40
-0.012627882 -1.468093 0.86260259 2.3243576e-39
0.011872697 -1.4636141 0.86256301 5.3581632e-39
0.037824672 -1.466906 0.86260808 2.4187182e-39
0.053994179 -1.4730598 0.8624472 1.4114158e-39
0.3602618 -1.625463 0.89964473 8.203239e-39
0.36039728 -1.6097461 0.88773376 7.5535424e-39
0.36844534 -1.5876153 0.88744116 6.9081688e-39
0.37698299 -1.5765054 0.88552457 6.9989239e-39
0.45678681 -1.5825839 0.88728285 1.1330661e-38
0.38912123 -1.5684723 0.8876304 6.7234174e-39
0.4126187 -1.5622563 0.88706106 8.2028817e-39
0.4371056 -1.5673386 0.88814139 8.5669615e-39
0.097836956 -1.5286397 0.88844967 8.6689368e-40
-0.060542226 -1.5115721 0.88781279 1.1779175e-40
0.089560457 -1.5086619 0.88714355 8.6509161e-40
-0.052642863 -1.4983413 0.88712442 1.1779175e-40
-0.03892456 -1.4835831 0.88745713 1.1779175e-40
0.06549596 -1.4809647 0.88780099 4.538496e-39
0.07876879 -1.492619 0.88774705 8.629294e-40
-0.02563671 -1.4736553 0.88829362 1.1779175e-40
-0.012674122 -1.4681965 0.88768023 2.5080286e-39
0.011946716 -1.4636441 0.88698262 2.2321634e-39
0.038084626 -1.4671679 0.88752908 2.8786146e-39
0.05385321 -1.4732758 0.88773423 9.5115936e-40
0.36056623 -1.6077191 0.91212523 7.2820142e-39
0.46723497 -1.6022307 0.92369223 1.3457314e-38
0.36837137 -1.587628 0.91289651 8.2954361e-39
0.37685585 -1.5766258 0.91060704 8.0184877e-39
0.45721033 -1.5831383 0.91174233 1.3456944e-38
0.38940161 -1.5682954 0.91281629 7.7415392e-39
0.41206059 -1.5623176 0.91190302 8.2957976e-39
0.43690789 -1.5672358 0.91309571 9.5850861e-39
-0.06846337 -1.538179 0.91514355 1.1779175e-40
0.097268268 -1.5274578 0.91206849 8.6689368e-40
-0.059693538 -1.5095201 0.91286105 1.1779175e-40
0.089363836 -1.5087312 0.91186422 8.6509161e-40
-0.052049987 -1.4972771 0.91205537 1.1779175e-40
-0.038624045 -1.4831358 0.91225588 1.1779175e-40
0.065045975 -1.4808291 0.91259444 4.5381359e-39
0.078474201 -1.4926033 0.91273588 8.629294e-40
-0.02589743 -1.4738272 0.91485786 1.1779175e-40
-0.012390468 -1.4681599 0.91241157 2.0484924e-39
0.012024291 -1.4637066 0.91262913 2.2321634e-39
0.037715632 -1.4672445 0.91245687 2.6945834e-39
0.053521845 -1.4733758 0.91259497 9.5115796e-40
0.36033309 -1.6262174 0.93318844 4.2384921e-39
0.3606039 -1.60857 0.93702006 6.3589719e-39
0.36818498 -1.587949 0.93754745 7.8337335e-39
0.37679097 -1.5766765 0.9374184 8.3879932e-39
0.45639643 -1.5820608 0.93699074 1.3180356e-38
0.3891556 -1.5684297 0.93764228 8.3879932e-39
0.41252446 -1.5622784 0.93648541 8.6653032e-39
0.4371649 -1.5673406 0.93812037 1.0323739e-38
-0.067429774 -1.5289024 0.93734092 1.1779175e-40
0.096717246 -1.5264748 0.9352504 8.6653494e-40
-0.059508163 -1.5088261 0.93738228 1.1779175e-40
0.089787893 -1.5102407 0.93822783 8.6545174e-40
-0.051737163 -1.4964945 0.93929935 1.1779175e-40
-0.039567184 -1.483723 0.93757772 1.1779175e-40
0.065440938 -1.4813281 0.93808061 4.538496e-39
0.07956522 -1.4941815 0.93635154 8.6328954e-40
-0.027040517 -1.4743091 0.93609786 1.1779175e-40
-0.012964629 -1.4683708 0.93769485 2.6920597e-39
0.0121 -1.46385 0.93784577 2.6920597e-39
0.037558369 -1.4673615 0.93737054 3.1541197e-39
0.053193755 -1.4733738 0.93714261 4.5370541e-39
0.36040306 -1.6269586 0.96613878 4.5165265e-39
0.36054066 -1.6093284 0.96243006 5.8972749e-39
0.3683193 -1.5877098 0.96187741 6.5411828e-39
0.37676322 -1.5766985 0.96472842 6.540824e-39
0.45678714 -1.5825604 0.96183187 1.0871119e-38
0.38932994 -1.5683503 0.96238863 7.372391e-39
0.41238552 -1.5622866 0.96226019 8.5727474e-39
0.43692529 -1.5672506 0.96280211 9.215219e-39
-0.066863813 -1.5251404 0.95190674 1.1779175e-40
0.099341318 -1.5381517 0.96997511 8.6689508e-40
-0.061276983 -1.5122015 0.96331489 1.1779175e-40
0.091057681 -1.5129642 0.96278584 8.6509161e-40
-0.052362915 -1.4973416 0.96291512 1.1779175e-40
-0.039041072 -1.4834831 0.96255201 1.1779175e-40
0.065968059 -1.4819628 0.96280318 9.5260129e-40
0.080588453 -1.4957434 0.96259975 8.6364967e-40
-0.027413808 -1.4748682 0.96384066 1.1779175e-40
-0.013161609 -1.4686965 0.9623853 2.2325221e-39
0.012174018 -1.4640467 0.96265709 2.0962724e-40
0.037518717 -1.4674529 0.96228278 2.8782544e-39
0.053136263 -1.4735361 0.96217257 2.0546216e-39
0.36022031 -1.62506 0.99631125 8.4805504e-39
0.36045763 -1.6091635 0.98811418 7.1883668e-39
0.3683559 -1.5877427 0.98690051 6.6341043e-39
0.37679914 -1.5766537 0.98988324 6.9106926e-39
0.4572784 -1.5833021 0.98731011 1.0780738e-38
0.38907444 -1.5684897 0.98743939 6.6341057e-39
0.41223416 -1.5623001 0.98783976 8.2032404e-39
0.43715286 -1.5673692 0.98776627 8.4769323e-39
-0.069407903 -1.5428524 0.99788862 1.1779175e-40
0.098888248 -1.5363818 0.98650092 8.6725521e-40
-0.061049398 -1.5117816 0.98735756 1.1779175e-40
0.090718351 -1.5124154 0.98743409 8.6545174e-40
-0.051891383 -1.4969007 0.987261 1.1779175e-40
-0.038703889 -1.4831669 0.9879145 1.1779175e-40
0.065635659 -1.481944 0.98752445 9.5260129e-40
0.080128707 -1.4952801 0.98766142 8.6328954e-40
-0.027032822 -1.4746287 0.98857075 1.1779175e-40
-0.013006044 -1.4687754 0.9874624 1.1779175e-40
0.012246463 -1.4642813 0.98708206 1.1779175e-40
0.037250075 -1.4675684 0.98746032 4.880162e-40
0.052725587 -1.473668 0.98818725 9.5115936e-40
0.37348163 -1.6527607 1.0050024 1.9727345e-38
0.38930705 -1.6564232 1.0049999 1.6863482e-38
0.41302896 -1.6609504 1.0049994 1.354773e-38
0.43589267 -1.6575665 1.0050012 1.5577478e-38
0.45176154 -1.6527694 1.004999 1.8620639e-38
0.36918977 -1.6336713 1.005002 1.7236626e-38
0.38765416 -1.6362846 1.0050013 1.5663533e-38
0.41252676 -1.6359543 1.0049999 1.2800814e-38
0.43737808 -1.6359506 1.0050009 1.5293676e-38
0.45781407 -1.6348361 1.0050019 1.5576385e-38
0.3667132 -1.6106696 1.0046898 1.585478e-38
0.3874779 -1.611237 1.0050005 1.722436e-38
0.41251117 -1.6112384 1.0050004 9.124192e-39
0.43754363 -1.6112356 1.0050008 1.6022947e-38
0.45907152 -1.6112329 1.0050015 1.8061295e-38
0.36936873 -1.5894647 1.0036744 1.2075464e-38
0.38655552 -1.5859964 1.0046422 1.4008339e-38
0.41200131 -1.5871469 1.0050009 1.7782946e-38
0.43721098 -1.5871491 1.0050006 1.9444235e-38
0.45655146 -1.5878528 1.0042968 1.6312472e-38
0.39051455 -1.5691855 1.003381 1.1152417e-38
0.4130263 -1.5655664 1.0041025 1.548489e-38
0.43616346 -1.5687109 1.0036072 1.3733169e-38
-0.068664804 -1.5362273 1.013034 1.1779175e-40
0.098244511 -1.5349692 1.0119982 8.6725521e-40
-0.060312957 -1.5103325 1.0121969 1.1779175e-40
0.090166688 -1.5115818 1.012442 8.6545174e-40
-0.052688293 -1.4979069 1.0120478 1.1779175e-40
-0.039415956 -1.4838916 1.0128139 1.1779175e-40
0.065252945 -1.4819349 1.012502 9.5260129e-40
0.079682462 -1.4949814 1.012267 8.6328954e-40
-0.02665996 -1.47446 1.0128939 1.1779175e-40
-0.012509614 -1.4686882 1.0124956 1.1779175e-40
0.012321123 -1.4646559 1.0125824 1.1779175e-40
0.037135009 -1.4677894 1.0125602 6.7204873e-40
0.052574921 -1.4738975 1.0131341 9.5115936e-40
-0.067381039 -1.5351993 1.0393668 1.1779175e-40
0.09691979 -1.5319538 1.0395536 8.7013908e-40
-0.059347287 -1.5100975 1.0378211 1.1779175e-40
0.089309119 -1.5112563 1.0381083 8.6761535e-40
-0.052149445 -1.4981948 1.0360819 1.1779175e-40
-0.038250353 -1.4844927 1.0383906 1.1779175e-40
-0.022491505 -1.4758911 1.048524 8.5571832e-40
0.048120607 -1.4750469 1.0498432 1.0487626e-39
0.063585877 -1.4817359 1.038613 9.5440477e-40
0.079137817 -1.4951793 1.0372964 9.569271e-40
-0.026395656 -1.4746832 1.0307627 1.1779175e-40
-0.012019166 -1.4696612 1.0374228 1.1779315e-40
0.012390152 -1.4663537 1.0386269 3.0290468e-40
0.037000038 -1.4691037 1.0376481 9.5151809e-40
0.051830493 -1.4740551 1.0336893 9.5187963e-40
-0.058036447 -1.5534196 1.0673958 3.0290468e-40
0.093786046 -1.5547562 1.0548015 9.6810386e-40
-0.059362464 -1.5355146 1.0623211 3.0218301e-40
0.088195153 -1.5346475 1.0627557 9.6774373e-40
-0.055398639 -1.5152117 1.0576731 1.1779175e-40
-0.045340784 -1.5073501 1.0666186 4.8729453e-40
0.07048028 -1.5053022 1.0700691 1.0566939e-39
0.081755795 -1.5132535 1.060874 1.0584974e-39
-0.034411132 -1.4908537 1.06059 6.7240746e-40
-0.014191848 -1.4810692 1.0650948 8.5932386e-40
0.012552526 -1.4782377 1.06963 9.5548517e-40
0.038622458 -1.4803953 1.0657172 9.5909071e-40
0.060811218 -1.4893111 1.0610985 1.0548905e-39
0.076959834 -1.4975853 1.0527294 1.0559723e-39
-0.0073555056 -1.4725567 1.0552343 8.5896373e-40
0.012310724 -1.4713206 1.0579038 9.5548517e-40
0.03393757 -1.4727944 1.0546523 1.0494829e-39
-0.010202643 -1.6079344 1.0874618 9.695458e-40
0.011757059 -1.6074636 1.0876228 1.0617414e-39
0.032248657 -1.6081129 1.0874007 1.0621016e-39
-0.032320723 -1.5875289 1.0876118 1.0613813e-39
-0.012772451 -1.5893072 1.0878035 1.06174e-39
0.011862068 -1.5886253 1.0880394 1.0617414e-39
0.037925187 -1.5882018 1.088186 1.0617414e-39
0.060294066 -1.5851151 1.0881195 1.0621016e-39
-0.051608175 -1.5586771 1.0874861 9.6810386e-40
-0.037012734 -1.5638239 1.0877848 9.695458e-40
-0.012767907 -1.5623022 1.0880859 1.06174e-39
0.012011463 -1.5617852 1.0883869 1.06174e-39
0.037685815 -1.561038 1.0886499 1.0617414e-39
0.062903255 -1.5605164 1.0887183 1.0617414e-39
0.078685746 -1.5582981 1.0872333 9.695458e-40
-0.052254047 -1.5353357 1.0840704 4.9630909e-40
-0.038091119 -1.5373076 1.0880454 1.0613799e-39
-0.013173503 -1.5366927 1.0883791 1.0613813e-39
0.012154789 -1.5360802 1.0885984 1.06174e-39
0.037458189 -1.5351268 1.0889392 1.06174e-39
0.062746845 -1.5347397 1.0890779 1.0617414e-39
0.079926133 -1.5353053 1.0838042 9.6630039e-40
-0.039199632 -1.512229 1.0844533 5.8850472e-40
-0.012686852 -1.5121135 1.0884353 1.0613813e-39
0.012291809 -1.5114397 1.0886803 1.0617414e-39
0.037247282 -1.5108484 1.0888951 1.0613813e-39
0.064263657 -1.5097951 1.085384 9.6485705e-40
0.076470099 -1.5205126 1.0824302 8.6797548e-40
-0.029431513 -1.4961098 1.0820067 3.9762404e-40
-0.011811377 -1.4881235 1.083322 4.9414688e-40
0.012427606 -1.4846092 1.0840493 7.7289598e-40
0.036666233 -1.4873664 1.0834484 9.5728724e-40
0.055105459 -1.4950413 1.0820371 9.580075e-40
