# .PCD v0.7 - Point Cloud Data file format
VERSION 0.7
FIELDS x y z rgb
SIZE 4 4 4 4
TYPE F F F F
COUNT 1 1 1 1
WIDTH 1015
HEIGHT 1
VIEWPOINT 0 0 0 1 0 0 0
POINTS 1015
DATA ascii
-0.55326384 -1.7654195 0.77469873 8.1992383e-39
-0.53742683 -1.7625046 0.77469873 8.1988782e-39
-0.51246274 -1.7622454 0.77469867 8.1074056e-39
-0.48751107 -1.7625047 0.77469879 8.1074056e-39
-0.46255031 -1.7627636 0.77469879 8.1995999e-39
-0.43758899 -1.7625046 0.77469879 8.1074056e-39
-0.4126367 -1.7622459 0.77469879 8.1992397e-39
-0.38767311 -1.7625047 0.77469879 8.0148471e-39
-0.36270061 -1.7627635 0.77469885 7.9226543e-39
-0.33733088 -1.7621036 0.77469885 7.923013e-39
-0.31806564 -1.7643197 0.77469915 7.9230144e-39
-0.10786075 -1.7650198 0.77469927 7.9237389e-39
-0.09078636 -1.7617977 0.77469927 7.9233773e-39
0.11839505 -1.7625031 0.77469951 7.9237403e-39
0.13732979 -1.7625035 0.77469987 7.9233773e-39
0.16231009 -1.7619855 0.77469999 8.015573e-39
0.18766902 -1.7626364 0.77469999 7.9233773e-39
0.2010124 -1.7625308 0.77469981 7.9233787e-39
0.24835157 -1.7625029 0.77469981 7.8319062e-39
0.2625519 -1.7623681 0.77470011 7.8319062e-39
0.28751281 -1.7626359 0.77470005 7.5553221e-39
0.31248289 -1.7629061 0.77470011 7.5553221e-39
0.3374193 -1.7621019 0.77470011 7.7400749e-39
0.36238334 -1.7623674 0.77470011 7.8322705e-39
0.3826651 -1.7633656 0.77470011 7.7397147e-39
0.66918582 -1.7508724 0.77470058 8.1988768e-39
0.6895557 -1.7582022 0.77470046 8.1992383e-39
0.71267885 -1.7623661 0.77470052 8.1074056e-39
0.73763448 -1.7621 0.77470064 8.1992411e-39
0.76259613 -1.7629042 0.7747007 8.1995999e-39
0.7875576 -1.7626339 0.7747007 8.1070469e-39
0.81292617 -1.7619827 0.7747007 8.1992383e-39
0.83789867 -1.7625011 0.77470076 7.9226528e-39
0.86199731 -1.7625004 0.77470082 7.9230144e-39
0.88699371 -1.7630183 0.77470082 7.923013e-39
0.90755093 -1.761637 0.77470106 8.0148527e-39
-0.90622646 -1.7356267 0.7746982 7.7397133e-39
-0.89669919 -1.7305733 0.77469808 7.8322705e-39
-0.53679001 -1.7359706 0.7746985 8.1992411e-39
-0.51238215 -1.7356256 0.77469856 8.01521e-39
-0.48801467 -1.735625 0.7746985 8.1074056e-39
-0.46251369 -1.7356262 0.7746985 8.0152086e-39
-0.43701276 -1.7356244 0.77469867 7.9233745e-39
-0.41264525 -1.7356256 0.77469879 8.1992411e-39
-0.3877109 -1.7356261 0.77469891 7.8308188e-39
-0.36221001 -1.7356244 0.77469897 7.9230172e-39
-0.33727157 -1.735281 0.77469897 7.9230158e-39
-0.32085466 -1.7367096 0.77469885 7.9230172e-39
-0.10550459 -1.7356251 0.77469915 7.9233773e-39
-0.09020403 -1.7356249 0.77469921 8.0152128e-39
0.11720338 -1.7356243 0.77469963 8.0155744e-39
0.1376041 -1.7356244 0.77469951 8.015573e-39
0.16310498 -1.7356241 0.77469945 7.9233801e-39
0.18749543 -1.7352796 0.77469945 8.0155758e-39
0.20082101 -1.7394094 0.77469969 8.0159359e-39
0.24810798 -1.7356237 0.77469975 7.831909e-39
0.26228607 -1.7352796 0.77469999 7.8319076e-39
0.2872054 -1.7356229 0.77469993 7.7397133e-39
0.31213653 -1.7359685 0.77469999 7.7397147e-39
0.33707666 -1.7352791 0.77470011 7.8326334e-39
0.36200798 -1.7356225 0.77470011 7.9244703e-39
0.3784616 -1.7367074 0.77470005 7.9244689e-39
0.51201236 -1.7299397 0.77470022 7.9233773e-39
0.53871936 -1.729562 0.77470022 8.0152086e-39
0.56240672 -1.7280513 0.77470022 7.9226543e-39
0.58781773 -1.7280513 0.77470028 8.0152128e-39
0.61433947 -1.7289954 0.7747004 7.9230158e-39
0.63828164 -1.7333895 0.7747004 8.107407e-39
0.66234976 -1.735278 0.7747004 8.01521e-39
0.68728733 -1.7359673 0.7747004 8.1074056e-39
0.71221966 -1.7356212 0.7747004 8.1070455e-39
0.73714024 -1.7352777 0.7747004 8.1074042e-39
0.76210189 -1.7359666 0.77470058 8.0152086e-39
0.78756791 -1.7352915 0.77470082 8.01521e-39
0.81251895 -1.7356217 0.77470088 8.1074056e-39
0.8374818 -1.7359506 0.77470082 7.8308188e-39
0.86292416 -1.7352772 0.77470088 7.9233759e-39
0.88732135 -1.7356211 0.774701 7.9230158e-39
0.90665668 -1.7362049 0.774701 7.9230172e-39
-0.90659326 -1.7131242 0.7746982 7.832632e-39
-0.89149535 -1.7115328 0.7746982 7.832632e-39
-0.53538078 -1.7131233 0.7746985 8.0152114e-39
-0.51295066 -1.7131228 0.77469844 8.1996013e-39
-0.487717 -1.7131237 0.7746985 8.1992383e-39
-0.46248329 -1.7131225 0.77469844 8.1070455e-39
-0.4372496 -1.7131238 0.7746985 8.0152114e-39
-0.41201589 -1.7131221 0.7746985 8.0152114e-39
-0.38733083 -1.7127857 0.77469862 7.9230158e-39
-0.36268193 -1.7134608 0.77469885 8.0155744e-39
-0.33743235 -1.7128 0.77469885 8.0155715e-39
-0.31949615 -1.7131227 0.77469879 7.9230172e-39
-0.10534968 -1.7124469 0.77469915 7.9233773e-39
-0.089028254 -1.7131222 0.77469915 8.0152142e-39
0.117888 -1.7131214 0.77469927 8.0159359e-39
0.13807495 -1.7131213 0.77469945 8.10777e-39
0.16221382 -1.7127843 0.77469945 8.0159345e-39
0.18739524 -1.7134434 0.77469951 8.1081343e-39
0.20168552 -1.7094057 0.77469957 8.0162988e-39
0.24791341 -1.7146038 0.77469969 7.9241018e-39
0.26256105 -1.7131209 0.77469987 7.7397119e-39
0.28724054 -1.7127981 0.77469993 7.7400749e-39
0.31246081 -1.7134589 0.77469999 7.832632e-39
0.33713949 -1.7127838 0.77469999 7.832632e-39
0.36237523 -1.7134428 0.77470011 7.8322733e-39
0.37695363 -1.7131206 0.77469993 7.8326334e-39
0.49976695 -1.7057066 0.77470011 8.0162988e-39
0.51321143 -1.7131191 0.77470016 8.0155758e-39
0.53732359 -1.7131197 0.77470016 8.1074098e-39
0.56199646 -1.7131207 0.77470022 8.107407e-39
0.58723009 -1.7131191 0.77470022 8.0159345e-39
0.61246377 -1.7131207 0.77470022 8.015573e-39
0.63769728 -1.7131188 0.77470034 8.0152114e-39
0.6623686 -1.7127827 0.77470034 7.9233759e-39
0.68760538 -1.7134421 0.77470034 8.1070469e-39
0.71282786 -1.7127827 0.77470034 8.1996013e-39
0.73752004 -1.7134575 0.7747004 8.1988796e-39
0.7627269 -1.712796 0.7747004 8.01521e-39
0.78741282 -1.7131193 0.77470046 8.0155715e-39
0.81264639 -1.7131194 0.77470064 8.0152114e-39
0.83788019 -1.7131191 0.77470088 7.9230158e-39
0.86258507 -1.7134413 0.77470082 8.0159345e-39
0.88775307 -1.7127823 0.77470088 8.0152114e-39
0.90685201 -1.713119 0.77470082 7.830823e-39
-0.90701133 -1.6874748 0.77469808 7.9244675e-39
-0.88745427 -1.6871226 0.7746982 7.7400763e-39
-0.86972493 -1.6795108 0.77469796 7.8322733e-39
-0.5347771 -1.6865679 0.77469832 7.9233773e-39
-0.51231295 -1.6877149 0.77469832 8.1077686e-39
-0.48737463 -1.6872318 0.77469838 8.1077658e-39
-0.46244901 -1.6877148 0.77469838 8.015573e-39
-0.43752202 -1.6872318 0.77469832 7.9233787e-39
-0.41258499 -1.6877148 0.77469838 8.015573e-39
-0.38766947 -1.6872318 0.77469844 7.9233773e-39
-0.36231083 -1.6873573 0.77469844 8.0159359e-39
-0.33739671 -1.6875974 0.77469844 7.9237403e-39
-0.31617856 -1.6855772 0.77469856 7.8315432e-39
-0.10821857 -1.6859797 0.77469909 7.9237389e-39
-0.089349985 -1.6874727 0.77469891 7.9233801e-39
0.11673053 -1.6874716 0.77469927 8.0159359e-39
0.13753074 -1.6869892 0.77469957 7.9237389e-39
0.16240792 -1.687955 0.77469963 7.8311831e-39
0.18737744 -1.6869888 0.77469963 8.0155758e-39
0.2014837 -1.6874715 0.77469951 8.0155758e-39
0.24720782 -1.6850567 0.77469963 7.9241018e-39
0.26256061 -1.687589 0.77469975 7.831546e-39
0.28748831 -1.6873451 0.77469981 7.8322705e-39
0.31242153 -1.6875882 0.77469999 7.832632e-39
0.33776408 -1.6874689 0.77469999 7.7400763e-39
0.36229748 -1.6878461 0.77470005 7.832632e-39
0.49558446 -1.6845047 0.77470011 7.7393476e-39
0.51309663 -1.6877115 0.77470016 7.9233801e-39
0.53802067 -1.6872286 0.77470016 8.0155758e-39
0.56296045 -1.6877114 0.77470016 7.9233787e-39
0.58787304 -1.6872283 0.77470016 7.8319062e-39
0.61240196 -1.687344 0.77470022 7.8319062e-39
0.63731718 -1.6875873 0.77470022 7.9237389e-39
0.6622569 -1.687344 0.77470022 7.9233787e-39
0.68717802 -1.6875873 0.77470028 7.9233787e-39
0.71253091 -1.6869867 0.77470028 8.1074098e-39
0.7374509 -1.6879524 0.77470034 8.1077672e-39
0.7623775 -1.6869866 0.77470028 8.0152142e-39
0.78732038 -1.6879524 0.7747004 8.0152142e-39
0.81222397 -1.6869866 0.77470034 8.015573e-39
0.8375988 -1.6878192 0.7747004 7.9233787e-39
0.86249137 -1.6870956 0.7747007 8.0159359e-39
0.88785475 -1.6874694 0.77470064 7.9237389e-39
0.90779799 -1.6874694 0.77470082 7.8315446e-39
-0.90741974 -1.662408 0.77469784 7.9244675e-39
-0.8877148 -1.6624079 0.77469802 7.7400749e-39
-0.86539513 -1.6610824 0.77469802 7.7397133e-39
-0.53741491 -1.6620864 0.77469832 7.9233801e-39
-0.51222509 -1.6624074 0.77469832 8.10777e-39
-0.48704627 -1.6624064 0.77469832 8.1077672e-39
-0.46241477 -1.6624076 0.77469832 8.015573e-39
-0.43778336 -1.6624061 0.77469832 8.0155715e-39
-0.41260448 -1.6624073 0.77469832 8.0152114e-39
-0.38687831 -1.6624076 0.77469844 7.8311831e-39
-0.3622469 -1.6624064 0.77469844 8.0159345e-39
-0.33761531 -1.6624076 0.7746985 7.830823e-39
-0.3124364 -1.6620988 0.7746985 7.8311817e-39
-0.29638994 -1.6576921 0.77469856 8.0152128e-39
-0.11111921 -1.6617327 0.77469897 7.9237403e-39
-0.088020422 -1.6624062 0.77469909 7.8311817e-39
0.11559941 -1.6624054 0.77469927 8.1081315e-39
0.13694665 -1.6624055 0.77469939 8.0159345e-39
0.16269773 -1.6620971 0.77469933 7.9237389e-39
0.18727809 -1.662727 0.77469939 7.9237389e-39
0.20217757 -1.6609892 0.77469945 7.8319062e-39
0.24591756 -1.6613959 0.77469963 7.8319048e-39
0.26227933 -1.6627121 0.77469951 7.8315446e-39
0.28747827 -1.6620971 0.77469951 7.9237445e-39
0.31264687 -1.6624051 0.77469975 7.9244661e-39
0.33782685 -1.6627116 0.77469993 7.7397147e-39
0.35862935 -1.6624045 0.77469987 7.7400749e-39
0.49269524 -1.6618984 0.77470005 7.831909e-39
0.51298213 -1.6624048 0.77470011 7.8311831e-39
0.53761363 -1.6624032 0.77470011 7.9233759e-39
0.56224507 -1.6624047 0.77470011 7.8311803e-39
0.58743322 -1.6620959 0.77470016 7.8315446e-39
0.612593 -1.6627104 0.77470016 7.831546e-39
0.63778126 -1.6624041 0.77470022 7.9241004e-39
0.66295826 -1.6620957 0.77470022 7.8315446e-39
0.68759322 -1.6627254 0.77470022 8.0155758e-39
0.71221358 -1.6620957 0.77470022 8.10777e-39
0.73741043 -1.6627105 0.77470022 8.1077672e-39
0.76258022 -1.6624041 0.77470034 8.015573e-39
0.78773856 -1.6620951 0.77470034 8.0155715e-39
0.8129577 -1.6627103 0.7747004 7.9230172e-39
0.83754021 -1.662082 0.7747004 7.9233787e-39
0.86274385 -1.6624027 0.77470058 8.0155758e-39
0.88737535 -1.6624027 0.7747007 7.7389861e-39
0.90708035 -1.6624026 0.77470082 7.7389875e-39
-0.90781826 -1.637961 0.77469784 7.7400749e-39
-0.8883453 -1.6379609 0.77469802 7.8322719e-39
-0.86238134 -1.6379608 0.77469808 7.7397133e-39
-0.84441537 -1.6319177 0.77469784 7.7397133e-39
-0.55503511 -1.6345068 0.77469826 7.9237417e-39
-0.53743333 -1.6376256 0.77469826 7.8311845e-39
-0.51269275 -1.6381902 0.77469826 7.9237403e-39
-0.48753291 -1.63796 0.77469826 8.1074084e-39
-0.46238148 -1.6377298 0.77469826 7.9237389e-39
-0.43723065 -1.6379597 0.77469832 8.0159359e-39
-0.41207138 -1.6381894 0.77469832 7.9237417e-39
-0.38774356 -1.6377295 0.77469832 7.8311831e-39
-0.36258444 -1.63796 0.77469832 7.9233787e-39
-0.33702046 -1.637849 0.77469832 7.8311803e-39
-0.31228077 -1.637958 0.77469832 7.8311817e-39
-0.28967008 -1.6359452 0.77469844 7.9233773e-39
-0.27346426 -1.6276231 0.77469856 7.9233759e-39
-0.13130653 -1.6339302 0.77469879 7.9237403e-39
-0.11268327 -1.6379608 0.77469879 7.9241018e-39
-0.087960109 -1.6376238 0.77469873 7.9233787e-39
0.11611897 -1.6379585 0.77469939 8.0159373e-39
0.13805126 -1.6374981 0.77469951 7.9237417e-39
0.16234177 -1.6384189 0.77469951 8.0155744e-39
0.18751952 -1.6379584 0.77469957 8.0155758e-39
0.2033824 -1.6364747 0.77469933 8.0159359e-39
0.24552488 -1.6382737 0.77469957 7.9237403e-39
0.26256919 -1.6382912 0.77469969 7.9237417e-39
0.28771761 -1.6376226 0.77469969 7.8322677e-39
0.31286862 -1.6378472 0.77469969 7.7400763e-39
0.33802789 -1.6380696 0.77469975 7.8322705e-39
0.35671967 -1.6386465 0.77469981 7.7397119e-39
0.48876625 -1.6371224 0.77470011 7.924106e-39
0.51287067 -1.6377264 0.77470011 7.8319048e-39
0.53762782 -1.6378459 0.77470011 8.0155744e-39
0.56276691 -1.6382902 0.77470011 7.9233773e-39
0.58750826 -1.6377267 0.77470011 7.8319062e-39
0.61226964 -1.6378464 0.77470016 7.8319062e-39
0.63742495 -1.6382902 0.77470016 7.9241032e-39
0.66255575 -1.6376214 0.77470022 7.9237417e-39
0.6877166 -1.6380684 0.77470022 7.8315446e-39
0.71287388 -1.6378454 0.77470022 8.0155744e-39
0.73761803 -1.6379542 0.77470022 8.0155715e-39
0.76236653 -1.6380683 0.77470022 7.9237389e-39
0.78751564 -1.6378449 0.77470028 7.9241018e-39
0.81265646 -1.637621 0.77470028 7.9237403e-39
0.83783531 -1.6382892 0.77470028 7.9233773e-39
0.86256891 -1.637957 0.77470034 7.9233787e-39
0.88729006 -1.6376204 0.77470034 7.8308216e-39
0.90725356 -1.6387229 0.77470046 7.8311817e-39
-0.90666139 -1.6107023 0.77469754 7.6475191e-39
-0.88744754 -1.6107023 0.77469784 7.6478806e-39
-0.86342996 -1.6107025 0.77469784 7.6478792e-39
-0.83948821 -1.6093317 0.7746979 7.6471562e-39
-0.82239389 -1.6006384 0.77469778 7.5553207e-39
-0.57704151 -1.6006378 0.77469802 8.0159387e-39
-0.56144786 -1.6098276 0.7746982 7.9241032e-39
-0.5380066 -1.6105937 0.7746982 7.8311845e-39
-0.51278019 -1.6107018 0.7746982 8.0155744e-39
-0.48716167 -1.6107013 0.7746982 8.015573e-39
-0.46234471 -1.6104771 0.7746982 7.9237389e-39
-0.43752825 -1.6107012 0.77469826 7.9237389e-39
-0.41230026 -1.6105934 0.77469826 7.9233801e-39
-0.38749254 -1.6110252 0.77469826 7.739349e-39
-0.36267588 -1.6103745 0.77469832 7.8315432e-39
-0.33786285 -1.6108096 0.77469832 7.9233787e-39
-0.31263751 -1.6107007 0.77469832 7.9233787e-39
-0.28741619 -1.6105928 0.77469832 7.9233801e-39
-0.26403338 -1.6084116 0.77469832 7.8315446e-39
-0.24360494 -1.6019729 0.7746985 7.9233787e-39
-0.15912135 -1.6039797 0.77469867 7.9237417e-39
-0.13772695 -1.6103743 0.77469844 7.9233815e-39
-0.11249754 -1.6106999 0.77469862 7.9237417e-39
-0.086878955 -1.6106999 0.77469873 7.8315432e-39
-0.071998455 -1.6006365 0.77469879 7.8315418e-39
0.11486731 -1.6106993 0.77469915 7.9237417e-39
0.13728353 -1.6106997 0.77469957 7.9233801e-39
0.16290213 -1.6106993 0.77469945 7.9233815e-39
0.18773408 -1.6102513 0.77469951 7.9237403e-39
0.20452695 -1.6106992 0.77469927 7.9237403e-39
0.24496628 -1.6099249 0.77469927 8.0159387e-39
0.26257229 -1.6110238 0.77469963 7.9244633e-39
0.28738633 -1.610373 0.77469963 7.8315474e-39
0.31220284 -1.6105914 0.77469963 7.6478778e-39
0.33742318 -1.6106985 0.77469969 7.6482394e-39
0.35552162 -1.6099246 0.77469957 7.648238e-39
0.47249106 -1.608457 0.77469975 7.8319062e-39
0.48793203 -1.6106985 0.77469999 7.8315474e-39
0.51274765 -1.6104741 0.77470005 7.9237417e-39
0.53756535 -1.6106982 0.77470005 8.0162974e-39
0.5627926 -1.6105902 0.77470011 8.0162974e-39
0.58760267 -1.6110225 0.77470011 7.9241032e-39
0.61241549 -1.6103719 0.77470011 7.8322677e-39
0.63723093 -1.6108069 0.77470011 7.9241032e-39
0.6624555 -1.6106976 0.77470011 7.9241018e-39
0.68767613 -1.6105899 0.77470016 7.8315432e-39
0.71249342 -1.6103712 0.77470016 8.0155744e-39
0.73730493 -1.611022 0.77470022 8.0155715e-39
0.76252639 -1.6106976 0.77470022 7.9233787e-39
0.78774786 -1.6108057 0.77470022 7.9237403e-39
0.81255966 -1.6105888 0.77470022 7.8315446e-39
0.83736342 -1.6103706 0.77470022 7.739349e-39
0.86259466 -1.6106967 0.77470028 7.9233787e-39
0.88821322 -1.6106968 0.77470034 7.9233787e-39
0.90742707 -1.610697 0.77470046 7.9233787e-39
-0.90705913 -1.5874263 0.77469754 7.9248277e-39
-0.88648367 -1.5874261 0.7746976 7.9244689e-39
-0.86165452 -1.5871403 0.7746976 8.0166646e-39
-0.83742231 -1.5874265 0.7746976 7.9241032e-39
-0.81571376 -1.5862662 0.7746976 7.7397119e-39
-0.79989851 -1.580863 0.77469766 7.8315474e-39
-0.58531731 -1.5859648 0.77469802 7.9233815e-39
-0.56255347 -1.5874249 0.77469808 7.9237403e-39
-0.53722966 -1.5874252 0.7746982 7.9233787e-39
-0.51190591 -1.5874249 0.7746982 8.0159345e-39
-0.48708895 -1.5877104 0.7746982 8.015573e-39
-0.46286184 -1.5871391 0.7746982 8.0155744e-39
-0.43804494 -1.5874251 0.7746982 7.9237403e-39
-0.41272113 -1.5874249 0.7746982 8.0159359e-39
-0.38739738 -1.5874248 0.77469826 7.7397091e-39
-0.3626011 -1.5874256 0.77469826 7.8311845e-39
-0.33780491 -1.5874248 0.77469826 7.9237403e-39
-0.31248116 -1.5874244 0.77469832 8.0159359e-39
-0.28768831 -1.5871387 0.77469832 7.9237417e-39
-0.26289222 -1.5874243 0.77469832 7.9233787e-39
-0.2375685 -1.5874246 0.77469832 8.1077714e-39
-0.21336094 -1.5861089 0.77469838 8.016296e-39
-0.1859923 -1.5868263 0.77469844 7.9237403e-39
-0.1621035 -1.5877097 0.77469844 8.0159359e-39
-0.13732512 -1.5874243 0.7746985 8.0159359e-39
-0.11252883 -1.5874249 0.7746985 7.8315474e-39
-0.088292256 -1.5871382 0.7746985 7.8315474e-39
-0.072964042 -1.5874239 0.77469879 7.9233773e-39
0.1133021 -1.5871371 0.77469909 7.8315446e-39
0.13753593 -1.5874239 0.77469909 7.8315446e-39
0.16178052 -1.5877084 0.77469915 7.9241046e-39
0.18660425 -1.587423 0.77469903 7.9237431e-39
0.20510906 -1.5868251 0.77469921 8.0155758e-39
0.24358261 -1.5874228 0.77469927 7.9244661e-39
0.26257542 -1.5874227 0.77469939 7.9241032e-39
0.28789911 -1.5874227 0.77469945 7.9241046e-39
0.31269786 -1.587137 0.77469939 7.9248277e-39
0.33748794 -1.587423 0.77469951 7.9248277e-39
0.35935691 -1.5866505 0.77469945 8.0166632e-39
0.46730131 -1.5861098 0.77469981 7.8311845e-39
0.48837495 -1.5874225 0.77469993 7.6467918e-39
0.51264346 -1.5874214 0.77469993 7.831546e-39
0.53691202 -1.5874223 0.77469999 7.9241018e-39
0.56223571 -1.587422 0.77469999 8.0162974e-39
0.5875594 -1.5874215 0.77470011 7.9241032e-39
0.61235559 -1.5874227 0.77470011 7.9241018e-39
0.6371516 -1.5874215 0.77470011 7.9237403e-39
0.66247529 -1.5874214 0.77470011 7.9237389e-39
0.68726629 -1.5871357 0.77470011 7.9233801e-39
0.71206397 -1.5874211 0.77470016 8.0159345e-39
0.73738766 -1.5874214 0.77470016 8.0155715e-39
0.76271135 -1.5874214 0.77470022 7.9233787e-39
0.78803492 -1.5874211 0.77470022 7.9241018e-39
0.8133586 -1.5874208 0.77470022 7.9241004e-39
0.8381812 -1.5877062 0.77470022 7.739349e-39
0.86242682 -1.5874214 0.77470022 7.8315446e-39
0.88666153 -1.587135 0.77470034 7.9237403e-39
0.90673953 -1.5874208 0.7747004 8.0159359e-39
-0.90744752 -1.5647042 0.77469736 7.9237431e-39
-0.88710582 -1.5647041 0.77469772 7.8319076e-39
-0.86206973 -1.5647038 0.77469778 7.8319076e-39
-0.83703387 -1.5647037 0.77469772 7.7397119e-39
-0.81199777 -1.5647042 0.77469778 7.8319076e-39
-0.78874081 -1.562025 0.7746976 7.7389903e-39
-0.76733208 -1.5566876 0.77469766 7.8311831e-39
-0.63330179 -1.5566871 0.77469772 7.8311845e-39
-0.61117548 -1.5622596 0.77469796 7.8319062e-39
-0.5874601 -1.5647039 0.77469808 7.831546e-39
-0.56242406 -1.5647038 0.77469808 7.9237403e-39
-0.53778851 -1.5646006 0.77469814 7.8311845e-39
-0.51313579 -1.5647035 0.77469814 7.9233787e-39
-0.4880999 -1.564703 0.77469814 7.9233787e-39
-0.46306393 -1.5647031 0.7746982 7.8315446e-39
-0.43802798 -1.5647032 0.7746982 7.831546e-39
-0.41299197 -1.5647029 0.7746982 7.9244633e-39
-0.38756552 -1.5644118 0.7746982 7.9237431e-39
-0.36214149 -1.5647031 0.77469826 7.8319062e-39
-0.33710551 -1.564703 0.77469826 7.9237403e-39
-0.31206954 -1.5647027 0.77469826 7.9241004e-39
-0.28703362 -1.5647027 0.77469832 7.9233801e-39
-0.26199761 -1.5647027 0.77469832 8.0159345e-39
-0.23735189 -1.5643919 0.77469832 8.0162974e-39
-0.21271195 -1.5647029 0.77469832 8.0159359e-39
-0.18767597 -1.5647024 0.77469832 7.9237417e-39
-0.16264001 -1.5647023 0.77469838 8.0162974e-39
-0.1376041 -1.5647025 0.77469844 7.9237417e-39
-0.11256815 -1.5647027 0.77469838 7.7393504e-39
-0.087532207 -1.5647023 0.77469844 7.8315432e-39
-0.070887938 -1.5634177 0.77469873 7.9233773e-39
0.097707108 -1.5598854 0.77469897 8.0152142e-39
0.11275521 -1.5647013 0.77469885 7.8311845e-39
0.13779113 -1.5647016 0.77469885 7.8319048e-39
0.16282703 -1.5647011 0.77469885 7.9241032e-39
0.18786295 -1.5647016 0.77469909 7.9241046e-39
0.20507514 -1.5647012 0.77469915 8.10777e-39
0.24466963 -1.5669945 0.77469927 7.9241032e-39
0.26257762 -1.5643897 0.77469957 7.9237417e-39
0.28683895 -1.5653422 0.77469951 7.9237417e-39
0.31225628 -1.5647013 0.77469957 7.8319076e-39
0.33729216 -1.5647007 0.77469963 7.8319076e-39
0.36232802 -1.5647005 0.77469957 7.7397133e-39
0.38549054 -1.5617664 0.77469951 7.7397105e-39
0.41191509 -1.5582794 0.77469951 7.7397119e-39
0.43852824 -1.5602009 0.77469945 7.7389889e-39
0.4624716 -1.5647002 0.77469981 7.8315432e-39
0.487104 -1.564597 0.77469987 7.7389889e-39
0.51215959 -1.564409 0.77469999 7.8311845e-39
0.53757411 -1.5647002 0.77469999 7.9237403e-39
0.56261009 -1.5647006 0.77470005 8.0159359e-39
0.58764595 -1.5647002 0.77470005 7.8315446e-39
0.61268175 -1.5646999 0.77470011 7.9237431e-39
0.63771766 -1.5646999 0.77470011 7.8315446e-39
0.66275358 -1.5646996 0.77470011 7.9237403e-39
0.68778932 -1.5646996 0.77470011 7.8315432e-39
0.71282518 -1.5646996 0.77470011 8.0152142e-39
0.73746884 -1.5643877 0.77470016 7.8315446e-39
0.76211071 -1.5646992 0.77470016 7.8311845e-39
0.78714657 -1.5646994 0.77470016 7.9237417e-39
0.81218237 -1.5646994 0.77470022 8.0162988e-39
0.83721828 -1.5646995 0.77470022 7.9237417e-39
0.8622542 -1.5646988 0.77470022 7.8319076e-39
0.88728988 -1.5646994 0.77470022 7.9237403e-39
0.90763158 -1.5646993 0.77470028 7.9241018e-39
-0.90788078 -1.5393469 0.77469736 7.6478764e-39
-0.8878001 -1.5393476 0.77469766 7.7397119e-39
-0.86308539 -1.5393468 0.77469766 7.9241046e-39
-0.8379662 -1.5390633 0.77469766 7.8322677e-39
-0.81288701 -1.5393466 0.77469772 7.7393518e-39
-0.78778237 -1.5392513 0.77469772 7.7397119e-39
-0.76230264 -1.539441 0.77469778 7.8315446e-39
-0.73772967 -1.5387192 0.77469772 7.9233815e-39
-0.71207613 -1.536211 0.7746976 7.8315432e-39
-0.687401 -1.536211 0.7746976 7.8315446e-39
-0.66174644 -1.5387194 0.77469772 7.8315446e-39
-0.63718772 -1.5390624 0.77469778 7.8311845e-39
-0.61207944 -1.5393461 0.77469796 7.8311845e-39
-0.58736461 -1.5393462 0.77469808 7.8319062e-39
-0.56227106 -1.539251 0.77469808 7.9237417e-39
-0.53716391 -1.5393463 0.77469808 7.9237417e-39
-0.5124492 -1.5393461 0.77469808 7.8315432e-39
-0.48773447 -1.5393465 0.77469808 7.9233787e-39
-0.46301967 -1.5393462 0.77469814 7.9237403e-39
-0.43753582 -1.5391618 0.77469814 7.9237417e-39
-0.41204789 -1.5393461 0.7746982 8.0162974e-39
-0.38733318 -1.5393456 0.7746982 8.0159359e-39
-0.36261839 -1.5393459 0.7746982 7.9237403e-39
-0.33790353 -1.5393457 0.7746982 7.9237417e-39
-0.31279871 -1.5392501 0.7746982 7.831546e-39
-0.28770295 -1.5393456 0.77469826 8.0155744e-39
-0.26259747 -1.5390619 0.77469826 8.10777e-39
-0.23750481 -1.5393451 0.77469832 8.0155744e-39
-0.21279006 -1.5393453 0.77469832 8.0155744e-39
-0.18768267 -1.5396302 0.77469832 8.0159359e-39
-0.1625845 -1.5393453 0.77469832 8.0159345e-39
-0.13786975 -1.5393456 0.77469838 7.9233787e-39
-0.11276313 -1.5394394 0.77469838 7.831546e-39
-0.08728762 -1.5392498 0.77469838 7.9237417e-39
-0.065299407 -1.5375773 0.7746985 7.8315432e-39
0.091797002 -1.5376064 0.77469897 7.8315446e-39
0.1119971 -1.5390606 0.77469879 7.8311859e-39
0.13707425 -1.5393444 0.77469879 7.8319062e-39
0.16079177 -1.5450488 0.77469915 7.8322705e-39
0.18754095 -1.5424662 0.77469903 7.9248277e-39
0.20324846 -1.5449802 0.77469909 8.0163016e-39
0.24669302 -1.5456017 0.77469921 7.9241032e-39
0.26083782 -1.5471762 0.77469927 7.8315474e-39
0.29485655 -1.5403891 0.77469927 7.8319104e-39
0.31277496 -1.5390599 0.77469957 7.7397119e-39
0.33788121 -1.5393441 0.77469957 7.7400721e-39
0.36259598 -1.5393438 0.77469963 7.9241046e-39
0.3876901 -1.5392479 0.77469963 7.831909e-39
0.41279635 -1.5393434 0.77469969 7.7397105e-39
0.43751103 -1.5393435 0.77469969 7.7393518e-39
0.46222579 -1.5393436 0.77469969 7.8315446e-39
0.4869405 -1.5393432 0.77469969 7.831546e-39
0.51242548 -1.5391586 0.77469981 7.8311831e-39
0.53791207 -1.5393432 0.77469993 7.9237403e-39
0.56262672 -1.5393424 0.77469999 7.8315432e-39
0.58734143 -1.5393425 0.77469999 7.8311831e-39
0.61244804 -1.5392473 0.77470005 7.8315446e-39
0.63754177 -1.5393429 0.77470005 7.831546e-39
0.66225642 -1.5393423 0.77470011 7.9237417e-39
0.68736368 -1.5390586 0.77470011 7.9237417e-39
0.7124545 -1.5393423 0.77470011 7.8315418e-39
0.73755616 -1.5396272 0.77470011 7.9237389e-39
0.76265985 -1.5393423 0.77470016 7.9237403e-39
0.7873745 -1.5393423 0.77470016 7.9237417e-39
0.81247902 -1.5394361 0.77470016 8.0162974e-39
0.83757734 -1.5393422 0.77470016 8.0155758e-39
0.86267173 -1.5392468 0.77470022 7.9237403e-39
0.8881411 -1.5390583 0.77470022 7.9241018e-39
0.90708226 -1.5393419 0.77470022 7.9233815e-39
-0.90761596 -1.5153098 0.7746973 7.7397133e-39
-0.8880704 -1.5143554 0.77469707 7.6475177e-39
-0.86255348 -1.5146307 0.77469724 7.6475163e-39
-0.83702588 -1.5149097 0.77469766 7.8319076e-39
-0.81222141 -1.514632 0.77469766 7.8319104e-39
-0.78781968 -1.514632 0.77469766 7.831546e-39
-0.76302946 -1.5143555 0.77469766 7.6471534e-39
-0.73787481 -1.514539 0.77469766 7.9233787e-39
-0.71271282 -1.5147238 0.77469766 7.8315432e-39
-0.68754375 -1.5149095 0.77469772 7.8315446e-39
-0.66238683 -1.5143551 0.77469778 7.8315432e-39
-0.63722247 -1.5145388 0.77469778 7.8311845e-39
-0.61243713 -1.5146317 0.77469778 7.8315432e-39
-0.58764803 -1.5147235 0.77469778 7.9241032e-39
-0.56248713 -1.5143547 0.77469784 7.9241018e-39
-0.53732574 -1.5149091 0.77469784 7.8315446e-39
-0.51216966 -1.5145385 0.77469802 7.8315474e-39
-0.48737818 -1.5146315 0.77469808 7.8311831e-39
-0.46258509 -1.5143549 0.77469808 7.9233787e-39
-0.43744436 -1.5147231 0.77469814 7.831546e-39
-0.41265038 -1.5146313 0.77469814 7.9233801e-39
-0.38785982 -1.5145385 0.77469814 8.015573e-39
-0.3627001 -1.514909 0.7746982 7.9241032e-39
-0.33754429 -1.5143545 0.7746982 7.9233787e-39
-0.31237969 -1.5147231 0.7746982 8.0152128e-39
-0.28759158 -1.5146308 0.7746982 8.1992425e-39
-0.26280713 -1.5145379 0.77469826 8.01521e-39
-0.23764464 -1.5143538 0.77469826 8.1074084e-39
-0.2124822 -1.5149086 0.77469826 7.9230186e-39
-0.187315 -1.5147223 0.77469832 7.9233787e-39
-0.162155 -1.5145377 0.77469832 8.0152128e-39
-0.13700211 -1.5143536 0.77469832 7.9230158e-39
-0.11220923 -1.5146306 0.77469832 7.8311845e-39
-0.087807551 -1.5146304 0.77469838 7.9237417e-39
-0.063000284 -1.514908 0.77469838 7.8311845e-39
-0.041538499 -1.5109367 0.7746985 7.8311831e-39
0.066623688 -1.5095462 0.77469873 7.9237431e-39
0.087220311 -1.5143681 0.77469867 7.9237403e-39
0.11310155 -1.5149069 0.77469873 7.739349e-39
0.13790792 -1.5146296 0.77469873 7.9241032e-39
0.29175979 -1.5121911 0.77469915 7.831909e-39
0.31252864 -1.5146285 0.77469957 7.7397133e-39
0.33730739 -1.5145355 0.77469957 7.6475177e-39
0.36247993 -1.5147204 0.77469957 7.6475163e-39
0.38764322 -1.514352 0.77469957 7.831909e-39
0.41241923 -1.5146282 0.77469957 7.831909e-39
0.43757847 -1.5148081 0.77469969 7.831546e-39
0.46274993 -1.5146285 0.77469963 7.647152e-39
0.48715159 -1.5146285 0.77469969 7.9233801e-39
0.51231378 -1.5144491 0.77469969 7.8315446e-39
0.53747755 -1.5146279 0.77469987 7.8315446e-39
0.56226861 -1.514535 0.77469981 7.8311831e-39
0.58742571 -1.5149059 0.77469999 7.8315432e-39
0.61258531 -1.5143512 0.77469999 7.8315446e-39
0.63774723 -1.5147197 0.77470005 7.9241032e-39
0.66253591 -1.5146279 0.77470005 7.9241018e-39
0.68732089 -1.5145348 0.77470005 7.8315446e-39
0.71248442 -1.514351 0.77470011 7.831546e-39
0.73764312 -1.5149057 0.77470011 7.9230186e-39
0.76242864 -1.5146277 0.77470011 7.9233787e-39
0.78721428 -1.5147192 0.77470011 7.831546e-39
0.81274301 -1.514269 0.77470011 8.0155744e-39
0.83791757 -1.5146276 0.77470016 8.0155744e-39
0.86231911 -1.5146273 0.77470016 8.0159373e-39
0.88672072 -1.5146273 0.77470016 7.9233773e-39
0.90654695 -1.5146275 0.77470022 8.0152128e-39
-0.9069162 -1.4870172 0.77469724 7.831909e-39
-0.88743454 -1.4878488 0.77469677 7.7397119e-39
-0.86215127 -1.4875799 0.77469683 7.7400735e-39
-0.8377797 -1.4872917 0.77469683 7.6478778e-39
-0.8125329 -1.4875782 0.77469695 7.8322719e-39
-0.7872752 -1.4878705 0.7746973 7.7397105e-39
-0.76260638 -1.4872916 0.77469766 7.739349e-39
-0.73765093 -1.4874369 0.77469778 7.8315446e-39
-0.71268612 -1.4877239 0.77469778 7.8315446e-39
-0.68743128 -1.4874431 0.77469778 7.8311831e-39
-0.6621657 -1.487579 0.77469778 7.8315432e-39
-0.63719934 -1.4874392 0.77469778 7.8315446e-39
-0.61224174 -1.4874347 0.77469784 7.8319076e-39
-0.58758932 -1.4878696 0.7746979 7.8322677e-39
-0.56262225 -1.4872973 0.7746979 7.9237417e-39
-0.53736311 -1.4875785 0.7746979 7.8315446e-39
-0.51239341 -1.4878695 0.77469796 7.7397105e-39
-0.48744896 -1.4872967 0.77469796 7.8311817e-39
-0.46217859 -1.4875779 0.77469808 8.0155758e-39
-0.43751803 -1.4875787 0.77469814 7.9233787e-39
-0.41255671 -1.4875798 0.77469802 7.9233773e-39
-0.38729393 -1.4874337 0.77469814 8.0155744e-39
-0.3623364 -1.4874376 0.77469814 8.0159359e-39
-0.337376 -1.4875779 0.7746982 8.0159345e-39
-0.31241006 -1.4877201 0.77469814 8.0152128e-39
-0.28715748 -1.4874374 0.77469814 7.8311789e-39
-0.26219156 -1.4875768 0.7746982 8.0148513e-39
-0.23752686 -1.4874328 0.77469826 8.0152114e-39
-0.21257159 -1.4875796 0.77469826 7.9230172e-39
-0.18761078 -1.4877224 0.77469826 8.0152114e-39
-0.16264893 -1.4874352 0.77469826 8.0148499e-39
-0.13769479 -1.4872891 0.77469826 8.1070441e-39
-0.11271468 -1.4880017 0.77469838 7.8311803e-39
-0.08718317 -1.4871632 0.77469838 7.9233787e-39
-0.062206537 -1.4875773 0.77469832 7.8319062e-39
-0.038147528 -1.4875774 0.77469838 7.9233787e-39
-0.013850716 -1.4853284 0.77469838 7.7386259e-39
0.01300607 -1.4816412 0.7746985 7.7393462e-39
0.037786242 -1.4836838 0.77469844 7.8311845e-39
0.062599577 -1.4875777 0.77469856 7.9237389e-39
0.088162258 -1.4875773 0.77469856 7.9233787e-39
0.11222126 -1.4875768 0.77469862 7.831546e-39
0.13689621 -1.4871541 0.77469862 7.8319062e-39
0.16376096 -1.4796742 0.77469897 7.8315446e-39
0.18740611 -1.4814051 0.77469885 7.8319062e-39
0.21279542 -1.4788638 0.77469909 7.831909e-39
0.23751792 -1.478691 0.77469909 7.831546e-39
0.26434776 -1.4840165 0.77469891 7.9244675e-39
0.28754088 -1.487432 0.77469873 7.8322705e-39
0.312206 -1.4875758 0.77469897 7.7400735e-39
0.33717144 -1.4874362 0.77469933 7.7397119e-39
0.36242479 -1.4877185 0.77469933 7.7400735e-39
0.3873902 -1.487576 0.77469969 7.7397133e-39
0.41235012 -1.4874358 0.77469969 7.8322705e-39
0.43730751 -1.4874312 0.77469975 7.7393518e-39
0.46257076 -1.4875768 0.77469975 7.6471534e-39
0.48753184 -1.4875759 0.77469981 7.9237403e-39
0.51219237 -1.4875755 0.77469981 7.8315432e-39
0.53746176 -1.4872938 0.77469981 7.8311831e-39
0.56240773 -1.4878662 0.77469981 7.8315432e-39
0.58737653 -1.4875748 0.77469981 7.831546e-39
0.61263484 -1.4872938 0.77469987 7.8319076e-39
0.63760346 -1.487866 0.77470005 7.8322677e-39
0.66225427 -1.4874305 0.77470005 7.9237417e-39
0.68721193 -1.4874353 0.77469999 7.7393476e-39
0.71217859 -1.4875746 0.77470005 7.831546e-39
0.73744357 -1.4874393 0.77470011 7.8311817e-39
0.76269925 -1.4877201 0.77470011 7.9237389e-39
0.78766286 -1.4874332 0.77470005 7.9233787e-39
0.8126179 -1.4872873 0.77470011 8.0152142e-39
0.8372882 -1.4878653 0.77470011 8.0159345e-39
0.86254483 -1.4875736 0.77470016 8.0159345e-39
0.88779056 -1.487286 0.77470016 8.0159345e-39
0.90765184 -1.4875745 0.77470016 8.0152128e-39
-0.90624988 -1.4612501 0.77469718 7.831909e-39
-0.88697284 -1.4612498 0.77469689 7.7397119e-39
-0.86247885 -1.4609107 0.77469683 7.6475149e-39
-0.83732456 -1.4615889 0.77469689 7.7400721e-39
-0.81244588 -1.4609879 0.77469695 7.8319104e-39
-0.78762537 -1.4612488 0.77469689 7.8319076e-39
-0.76279491 -1.4615122 0.77469695 7.7393504e-39
-0.73757273 -1.4610019 0.77469689 7.7389875e-39
-0.71237087 -1.4615122 0.77469736 7.9237403e-39
-0.68753469 -1.4609101 0.77469754 7.8311845e-39
-0.66269451 -1.4613363 0.77469766 7.8311817e-39
-0.63785803 -1.4612503 0.77469772 7.8319048e-39
-0.61264962 -1.4612484 0.77469772 7.831546e-39
-0.58744121 -1.4612502 0.77469772 7.8315474e-39
-0.56261051 -1.4611614 0.77469772 7.8319048e-39
-0.53776109 -1.4610796 0.77469778 7.8315432e-39
-0.51256454 -1.4614187 0.77469778 7.8311831e-39
-0.48734882 -1.4610796 0.77469778 7.9237389e-39
-0.46214327 -1.4614185 0.77469778 8.0155744e-39
-0.43693665 -1.4610794 0.7746979 7.9233773e-39
-0.41246879 -1.4612489 0.77469808 8.0152086e-39
-0.38762426 -1.4611673 0.77469808 8.0152114e-39
-0.36243004 -1.4613359 0.77469808 8.015573e-39
-0.3375729 -1.4614186 0.77469814 7.9233773e-39
-0.3123889 -1.4610795 0.7746982 7.9230144e-39
-0.28753647 -1.4611607 0.7746982 7.9230158e-39
-0.26270255 -1.4612496 0.7746982 7.9230158e-39
-0.2374943 -1.4612471 0.7746982 7.9233773e-39
-0.21265909 -1.460987 0.7746982 8.0152128e-39
-0.18781447 -1.4615878 0.77469826 7.9230144e-39
-0.16262192 -1.4609085 0.77469826 7.9230158e-39
-0.13738866 -1.461587 0.77469832 8.0152128e-39
-0.11221433 -1.4609091 0.77469832 7.9233759e-39
-0.087730393 -1.4612482 0.77469832 8.015573e-39
-0.062522061 -1.461248 0.77469832 7.9237431e-39
-0.03731373 -1.4612472 0.77469832 7.9233787e-39
-0.01210539 -1.4612471 0.77469838 7.7389861e-39
0.013102943 -1.4612479 0.77469838 7.8311831e-39
0.036828432 -1.4612468 0.77469838 7.7389861e-39
0.062036745 -1.4612478 0.77469844 7.9230144e-39
0.087245084 -1.4612473 0.77469844 7.9233773e-39
0.11245339 -1.4612467 0.77469844 7.8315446e-39
0.13766173 -1.4612473 0.77469856 7.8315474e-39
0.1625109 -1.4609996 0.77469862 7.8315446e-39
0.18769532 -1.4615096 0.77469873 7.8311845e-39
0.21255201 -1.4609073 0.77469873 7.8319076e-39
0.23774675 -1.4615858 0.77469873 7.8319076e-39
0.26258945 -1.4609852 0.77469879 7.8322691e-39
0.28742534 -1.4612458 0.77469879 7.8319076e-39
0.3126336 -1.4612474 0.77469879 7.831909e-39
0.33746719 -1.4611585 0.77469885 7.6475163e-39
0.36231932 -1.4610764 0.77469903 7.7397119e-39
0.38750425 -1.4614153 0.77469951 7.7397133e-39
0.41273135 -1.4610764 0.77469963 7.8322705e-39
0.43792546 -1.4614153 0.77469963 7.8315474e-39
0.46277997 -1.4613326 0.77469957 7.6471534e-39
0.48722753 -1.4609841 0.77469957 7.8311831e-39
0.51207405 -1.4614154 0.77469969 7.9237403e-39
0.53727865 -1.4610763 0.77469969 7.8311831e-39
0.56249529 -1.4614154 0.77469969 7.8311817e-39
0.58769053 -1.461076 0.77469969 7.8319076e-39
0.61254025 -1.4611576 0.77469975 7.8315446e-39
0.63737112 -1.461247 0.77469975 7.8319076e-39
0.66257936 -1.4612447 0.77469999 7.831546e-39
0.68778759 -1.4612463 0.77469981 7.739349e-39
0.71262419 -1.4613322 0.77469999 7.8315432e-39
0.73746276 -1.4609061 0.77469999 7.9237389e-39
0.76267308 -1.4615846 0.77470011 8.015573e-39
0.78787023 -1.4609063 0.77470011 7.9233773e-39
0.81272459 -1.4615078 0.77470011 8.1070441e-39
0.83755416 -1.4612443 0.77470011 8.0152128e-39
0.86237359 -1.4609836 0.77470011 8.0155744e-39
0.88761723 -1.4614919 0.77470011 7.9230172e-39
0.90724784 -1.461247 0.77470016 7.9230144e-39
-0.90636015 -1.4389058 0.77469718 7.7393504e-39
-0.88763279 -1.4384627 0.77469683 7.7397119e-39
-0.86273122 -1.4384624 0.77469683 7.7393504e-39
-0.83744615 -1.4382075 0.77469689 7.7397133e-39
-0.81257784 -1.4387026 0.77469683 7.831546e-39
-0.78728044 -1.4381309 0.77469689 7.8315432e-39
-0.76240528 -1.4387932 0.77469689 7.8311831e-39
-0.73748571 -1.4381316 0.77469689 7.7389875e-39
-0.71259272 -1.4387938 0.77469689 7.8319048e-39
-0.68769127 -1.438131 0.77469689 7.9237403e-39
-0.66242123 -1.4385427 0.77469689 7.8311817e-39
-0.63752407 -1.4383758 0.7746973 7.8311831e-39
-0.61261547 -1.4385428 0.77469772 7.8315432e-39
-0.5873509 -1.4384608 0.77469748 7.739349e-39
-0.56244904 -1.4384629 0.77469772 7.8315446e-39
-0.53754753 -1.4384604 0.77469778 7.8315446e-39
-0.51228839 -1.4383818 0.77469778 7.8315446e-39
-0.48701146 -1.4382961 0.77469778 8.0159373e-39
-0.46211249 -1.4386272 0.77469778 8.0152114e-39
-0.43721256 -1.4382958 0.77469778 7.9230144e-39
-0.41230461 -1.4386268 0.77469778 8.1070427e-39
-0.38741365 -1.4382955 0.7746979 8.0148485e-39
-0.36249673 -1.4386268 0.77469808 7.923013e-39
-0.33761474 -1.438296 0.77469808 7.8308202e-39
-0.31233341 -1.4383816 0.77469814 7.8311803e-39
-0.28743899 -1.4385455 0.77469814 7.8308216e-39
-0.26253226 -1.4383813 0.77469814 7.7386231e-39
-0.23726693 -1.4384598 0.7746982 7.7386245e-39
-0.21236514 -1.4384619 0.7746982 7.8311817e-39
-0.18746363 -1.4384598 0.7746982 8.015573e-39
-0.16256176 -1.4384615 0.7746982 7.9230158e-39
-0.13730635 -1.4382187 0.77469826 7.9233773e-39
-0.11237923 -1.4387164 0.77469826 7.8311831e-39
-0.087509528 -1.438219 0.77469832 7.9237417e-39
-0.062569022 -1.438717 0.77469832 7.9241018e-39
-0.037712734 -1.4382188 0.77469832 7.9237389e-39
-0.012383713 -1.4387912 0.77469832 7.8311831e-39
0.012439631 -1.4381293 0.77469832 7.7389847e-39
0.03811283 -1.4384607 0.77469844 7.8308202e-39
0.06301447 -1.4384604 0.77469844 7.8304586e-39
0.087916113 -1.4384599 0.77469844 7.8311817e-39
0.11281776 -1.4384596 0.77469844 7.8311831e-39
0.13736793 -1.438218 0.77469844 7.8315432e-39
0.16223918 -1.4387162 0.7746985 7.8315446e-39
0.18716469 -1.4382178 0.77469867 7.7389889e-39
0.21242082 -1.4384604 0.77469873 7.8311831e-39
0.23732264 -1.4384584 0.77469873 7.8319062e-39
0.26222411 -1.43846 0.77469873 7.8315474e-39
0.28712583 -1.4384584 0.77469873 7.831546e-39
0.31239089 -1.4383789 0.77469879 7.7397105e-39
0.33729813 -1.4385442 0.77469885 7.7397119e-39
0.36219198 -1.4383786 0.77469879 7.7393504e-39
0.38747275 -1.4382936 0.77469903 7.7397119e-39
0.41235587 -1.4386243 0.77469891 7.8319062e-39
0.43727151 -1.4382936 0.77469963 7.8311831e-39
0.46216354 -1.438624 0.77469963 7.8311817e-39
0.48707032 -1.4382927 0.77469963 7.7393462e-39
0.51197118 -1.4386241 0.77469963 7.9237417e-39
0.53724384 -1.4382168 0.77469963 7.9237389e-39
0.56250376 -1.4384593 0.77469969 7.8311803e-39
0.58740526 -1.4384576 0.77469969 7.8311831e-39
0.61266798 -1.438539 0.77469975 7.8311845e-39
0.63758034 -1.4383724 0.77469969 7.831546e-39
0.6624735 -1.4385387 0.77469987 7.8311845e-39
0.68738103 -1.4383723 0.77469999 7.831546e-39
0.71227872 -1.438539 0.77469999 7.9233801e-39
0.7375474 -1.4381266 0.77469999 8.0155772e-39
0.76245099 -1.4387887 0.77469999 8.0152114e-39
0.78734159 -1.4381266 0.77470005 7.9230144e-39
0.81262517 -1.4386985 0.77470005 8.1070427e-39
0.83750522 -1.4382026 0.77470011 7.923013e-39
0.86243504 -1.4386985 0.77470011 7.9226543e-39
0.88730145 -1.4382021 0.77470011 7.8311803e-39
0.90672809 -1.4384574 0.77470011 7.8308216e-39
-0.90313882 -1.4208003 0.77469689 7.7393476e-39
-0.88691443 -1.4134918 0.77469671 7.7393504e-39
-0.86265302 -1.4137609 0.77469665 7.7397119e-39
-0.83777976 -1.4134934 0.77469671 7.7397105e-39
-0.81233633 -1.4131104 0.77469671 7.8311845e-39
-0.78749961 -1.4136217 0.77469677 7.8311831e-39
-0.76264113 -1.4134914 0.77469677 7.9237389e-39
-0.73749918 -1.4133685 0.77469677 7.8311817e-39
-0.71235228 -1.4136211 0.77469677 7.9237417e-39
-0.68749917 -1.4134912 0.77469677 7.9237403e-39
-0.66265142 -1.413366 0.77469677 7.9230144e-39
-0.63778681 -1.4133651 0.77469677 7.8308202e-39
-0.6129418 -1.4136192 0.77469712 7.8311831e-39
-0.58779329 -1.4134929 0.77469724 7.8315446e-39
-0.56264991 -1.4133645 0.77469778 7.8319062e-39
-0.5375098 -1.4133679 0.77469772 7.9241032e-39
-0.51265472 -1.4134914 0.77469778 7.8315474e-39
-0.4875111 -1.4134916 0.77469772 7.9241004e-39
-0.46207854 -1.4134922 0.77469784 8.015573e-39
-0.43751284 -1.4134912 0.7746979 7.9230144e-39
-0.41265574 -1.4133673 0.77469784 8.0148499e-39
-0.38751537 -1.4133643 0.77469802 7.9230144e-39
-0.36237437 -1.4134923 0.77469802 7.9230172e-39
-0.33722803 -1.4136182 0.77469802 7.9233773e-39
-0.31237876 -1.4133642 0.77469802 7.7386259e-39
-0.28723243 -1.4134922 0.77469808 7.7386245e-39
-0.26237211 -1.41336 0.77469814 7.7386245e-39
-0.23752858 -1.4136161 0.77469808 7.7386245e-39
-0.21237749 -1.4133649 0.77469814 7.9233787e-39
-0.18752675 -1.413489 0.77469814 7.8308216e-39
-0.16267055 -1.4136195 0.77469814 7.9233759e-39
-0.13782521 -1.4131079 0.77469814 7.9230144e-39
-0.11238824 -1.4134902 0.7746982 8.0152128e-39
-0.087224141 -1.4138818 0.77469826 7.9237389e-39
-0.062699087 -1.4131078 0.77469832 7.9241018e-39
-0.037246436 -1.4134902 0.7746985 7.9233773e-39
-0.012680839 -1.4134901 0.77469832 7.8311831e-39
0.011884755 -1.4134902 0.7746985 7.7386245e-39
0.037895381 -1.4134902 0.7746985 7.8311817e-39
0.062460981 -1.4134901 0.77469832 7.9233787e-39
0.087026559 -1.4134902 0.7746985 7.8311831e-39
0.11276042 -1.41324 0.7746985 7.9237417e-39
0.13759913 -1.4134915 0.77469838 7.8315446e-39
0.16244857 -1.413738 0.7746985 7.831546e-39
0.18760401 -1.4131073 0.7746985 7.739349e-39
0.21245097 -1.4136181 0.77469856 7.8311845e-39
0.23730665 -1.413488 0.77469867 7.8315446e-39
0.26244605 -1.4133655 0.77469867 7.8311845e-39
0.28759795 -1.4136181 0.77469867 7.8315446e-39
0.31244832 -1.4134877 0.77469867 7.8311831e-39
0.33729351 -1.4133633 0.77469873 7.831546e-39
0.36244914 -1.4132396 0.77469879 7.7397105e-39
0.38758481 -1.4134903 0.77469873 7.7397105e-39
0.41244197 -1.4137442 0.77469891 7.8315446e-39
0.43758059 -1.4132397 0.77469903 7.8315418e-39
0.4627265 -1.4134899 0.77469945 7.9233801e-39
0.48729205 -1.4134886 0.77469969 7.8311831e-39
0.51243556 -1.4134892 0.77469975 7.9237431e-39
0.53786826 -1.4134902 0.77469975 7.9233787e-39
0.56243366 -1.4134886 0.77469969 7.8311789e-39
0.58728832 -1.4133649 0.77469975 7.8308202e-39
0.61242837 -1.4133611 0.77469981 7.8315432e-39
0.63757187 -1.4134891 0.77469981 7.8315446e-39
0.66272068 -1.4136153 0.77469981 7.8319076e-39
0.68756473 -1.4133607 0.77469981 7.9241032e-39
0.71271348 -1.4134898 0.77469999 7.831546e-39
0.73757106 -1.4133568 0.77469999 7.9237403e-39
0.76241964 -1.4136132 0.77469999 8.0152128e-39
0.78756571 -1.4133621 0.77469999 7.9230144e-39
0.81270337 -1.4132388 0.77470011 8.0148499e-39
0.83785987 -1.4138699 0.77470011 7.9230158e-39
0.86240107 -1.4130968 0.77470005 7.9233773e-39
0.88755697 -1.4134881 0.77470011 7.9233759e-39
0.90778738 -1.4134879 0.77470011 7.6467904e-39
-0.88252711 -1.3886403 0.77469665 7.8315474e-39
-0.86208779 -1.3865144 0.77469653 7.7400735e-39
-0.83701509 -1.3861425 0.77469671 7.7397119e-39
-0.81255233 -1.3866384 0.77469671 7.8315446e-39
-0.78777862 -1.3867551 0.77469671 7.9237389e-39
-0.76271445 -1.386272 0.77469671 8.015573e-39
-0.73766303 -1.3863935 0.77469671 7.9230172e-39
-0.71260631 -1.3865139 0.77469677 8.0155772e-39
-0.68754447 -1.3866349 0.77469677 7.9241046e-39
-0.66249132 -1.3862716 0.77469677 7.9230172e-39
-0.6377272 -1.386637 0.77469677 7.9230172e-39
-0.61266392 -1.3865132 0.77469689 7.9237403e-39
-0.58732229 -1.3865142 0.77469677 7.7397091e-39
-0.56226647 -1.386271 0.77469736 7.831546e-39
-0.53749698 -1.3865138 0.77469778 7.9241046e-39
-0.5124402 -1.3865128 0.77469754 7.8319076e-39
-0.48766828 -1.3865119 0.77469778 7.9237417e-39
-0.46289617 -1.3865125 0.77469772 8.015573e-39
-0.43755063 -1.3863922 0.77469772 7.8308202e-39
-0.41250208 -1.3866339 0.77469772 7.923013e-39
-0.38743961 -1.38627 0.77469784 7.9230158e-39
-0.36238793 -1.3865132 0.77469784 7.9230186e-39
-0.3376132 -1.3866359 0.77469796 7.7389861e-39
-0.31255743 -1.3865126 0.77469796 7.7386259e-39
-0.28750676 -1.3863884 0.77469802 7.7389875e-39
-0.26273036 -1.3865129 0.77469802 7.8308188e-39
-0.23738888 -1.386512 0.77469802 7.9230144e-39
-0.21232611 -1.3861411 0.77469814 8.0155758e-39
-0.18756586 -1.3867531 0.77469808 8.01521e-39
-0.16250373 -1.386633 0.77469808 8.01521e-39
-0.13744669 -1.3865126 0.77469808 8.0148499e-39
-0.11268927 -1.3861408 0.77469814 8.1074042e-39
-0.087623104 -1.3865119 0.77469802 8.107407e-39
-0.061996914 -1.3865117 0.7746982 7.9233787e-39
-0.037194189 -1.3868915 0.77469826 7.9230144e-39
-0.013052469 -1.3861401 0.77469832 7.9233773e-39
0.012034263 -1.3865114 0.77469838 7.8315432e-39
0.037660439 -1.3865112 0.7746985 7.9233759e-39
0.06328661 -1.3865116 0.7746985 7.9233787e-39
0.08779034 -1.386253 0.77469832 7.7389861e-39
0.11196094 -1.3867522 0.77469844 7.8319062e-39
0.13731775 -1.3865114 0.7746985 7.8315432e-39
0.1626645 -1.3862691 0.7746985 7.8311831e-39
0.1877134 -1.3863908 0.7746985 7.8311831e-39
0.2127675 -1.3865116 0.7746985 7.8311845e-39
0.23782657 -1.3866321 0.77469862 7.9237417e-39
0.26259783 -1.3865098 0.77469856 7.831546e-39
0.28736398 -1.3863903 0.7746985 7.8319076e-39
0.31242472 -1.3865118 0.77469867 7.8315432e-39
0.33776617 -1.3865112 0.77469873 7.8315474e-39
0.36282498 -1.386387 0.77469873 7.7397119e-39
0.38759345 -1.3863907 0.77469879 7.8315474e-39
0.41265041 -1.3867517 0.77469879 7.8315446e-39
0.43741751 -1.3862635 0.77469873 7.9237375e-39
0.46247661 -1.3865106 0.77469897 7.9233773e-39
0.48753321 -1.386511 0.77469903 7.9233773e-39
0.51258993 -1.3865103 0.77469939 8.0159387e-39
0.53765339 -1.3862633 0.77469975 7.9237431e-39
0.56241179 -1.3867513 0.77469975 7.9230172e-39
0.58747524 -1.3863895 0.77469975 7.9233773e-39
0.6125319 -1.3866311 0.77469975 7.9237403e-39
0.63758165 -1.3862675 0.77469975 7.739349e-39
0.66264153 -1.3865107 0.77469981 7.831909e-39
0.68770456 -1.3863895 0.77469981 7.9241046e-39
0.71246856 -1.3865088 0.77469981 7.8319062e-39
0.73723751 -1.3866303 0.77469981 8.0155758e-39
0.76229876 -1.3865103 0.77469993 8.0152142e-39
0.78735501 -1.3863884 0.77469999 7.8308188e-39
0.81240594 -1.3862673 0.77469999 8.0148499e-39
0.83774823 -1.3865092 0.77469999 7.9230158e-39
0.86282188 -1.3868793 0.77469999 7.9230186e-39
0.88729 -1.3863864 0.77470011 7.7386259e-39
0.90665728 -1.3865093 0.77469999 7.7386259e-39
-0.87789947 -1.3689398 0.77469683 7.8311831e-39
-0.86248195 -1.3609341 0.77469653 7.7393504e-39
-0.83798736 -1.3603208 0.77469653 7.8315446e-39
-0.81273437 -1.3603206 0.77469653 7.8315446e-39
-0.78748137 -1.3603206 0.77469659 7.8319076e-39
-0.76250863 -1.3600852 0.77469671 7.9233787e-39
-0.73753965 -1.3603206 0.77469671 7.9226528e-39
-0.71257061 -1.3602036 0.77469671 8.0155744e-39
-0.68759668 -1.3603203 0.77469671 8.0159387e-39
-0.66262424 -1.3603209 0.77469677 7.9230172e-39
-0.63765186 -1.3603202 0.77469677 7.9230172e-39
-0.6123988 -1.36032 0.77469677 7.9233787e-39
-0.58742386 -1.3600852 0.77469677 7.8319104e-39
-0.56245732 -1.3603203 0.77469677 7.8315474e-39
-0.53748298 -1.3604378 0.77469695 7.9237403e-39
-0.51251096 -1.3603204 0.7746976 8.0155758e-39
-0.48754388 -1.360203 0.77469772 7.9233801e-39
-0.46256781 -1.3603202 0.77469772 8.1074084e-39
-0.43731478 -1.3603199 0.77469772 8.0144869e-39
-0.4123376 -1.3600845 0.77469772 8.0148471e-39
-0.3873733 -1.3603197 0.77469772 7.9230144e-39
-0.36240098 -1.3603202 0.77469772 7.8308202e-39
-0.33742857 -1.3603197 0.77469778 7.8308202e-39
-0.31217557 -1.3603191 0.77469778 7.8315432e-39
-0.28719643 -1.3602027 0.77469784 7.8311817e-39
-0.2625109 -1.360553 0.77469802 7.8308202e-39
-0.23782355 -1.3600842 0.77469802 8.0155715e-39
-0.21284901 -1.3603191 0.77469796 7.9233787e-39
-0.18759605 -1.3603196 0.77469802 8.0155715e-39
-0.16234311 -1.3603193 0.77469802 8.01521e-39
-0.13736773 -1.3604369 0.77469808 8.0148499e-39
-0.11239679 -1.3603193 0.77469802 8.0148485e-39
-0.087424375 -1.3603197 0.77469808 8.0152086e-39
-0.063037626 -1.3599588 0.77469814 7.8311817e-39
-0.038326431 -1.360319 0.77469802 8.0152086e-39
-0.013073501 -1.3603191 0.77469814 7.9226557e-39
0.012179418 -1.3603194 0.77469838 7.8311817e-39
0.037432335 -1.3603183 0.77469838 8.0155744e-39
0.062685259 -1.3603184 0.7746985 7.9233787e-39
0.087938152 -1.3603188 0.7746985 7.7389875e-39
0.11292241 -1.3600826 0.77469844 7.8311831e-39
0.13760319 -1.3602016 0.77469844 7.9233787e-39
0.16256964 -1.3603185 0.7746985 7.8311803e-39
0.18754187 -1.360319 0.77469844 7.8308188e-39
0.21251427 -1.3603181 0.7746985 7.8315432e-39
0.2374889 -1.3604351 0.7746985 7.9241046e-39
0.26246053 -1.3603177 0.77469856 7.831546e-39
0.28771341 -1.3603184 0.77469856 7.8319076e-39
0.31268385 -1.3600823 0.77469867 7.7389889e-39
0.33765474 -1.3603178 0.77469873 7.7389861e-39
0.36262915 -1.3602004 0.77469867 7.7397091e-39
0.38759771 -1.3603175 0.77469873 7.831546e-39
0.41257229 -1.360551 0.77469879 7.831546e-39
0.43754545 -1.3603171 0.77469879 7.9237417e-39
0.46251792 -1.3603179 0.77469879 7.9230158e-39
0.48719737 -1.3600816 0.77469879 8.0148499e-39
0.5121786 -1.3603168 0.77469891 8.0159359e-39
0.53743142 -1.3603169 0.77469921 8.0159373e-39
0.56268424 -1.3603169 0.77469963 7.9230144e-39
0.58765656 -1.3601999 0.77469939 7.9233787e-39
0.61262727 -1.3603169 0.77469975 7.9233787e-39
0.63760275 -1.3604345 0.77469975 7.8322691e-39
0.66228288 -1.3600811 0.77469975 7.8319076e-39
0.68726182 -1.3603166 0.77469975 7.9237389e-39
0.71251458 -1.3603166 0.77469981 7.9237403e-39
0.7374869 -1.3603175 0.77469981 7.9233787e-39
0.76245904 -1.3603163 0.77469981 8.107407e-39
0.78743082 -1.3601995 0.77469981 8.0144869e-39
0.81240183 -1.3603165 0.77469999 8.0148471e-39
0.83736664 -1.360081 0.77469993 7.9230158e-39
0.86234325 -1.3603163 0.77469999 7.8308202e-39
0.88759613 -1.3603165 0.77469999 7.8308216e-39
