# .PCD v0.7 - Point Cloud Data file format
VERSION 0.7
FIELDS x y z rgb
SIZE 4 4 4 4
TYPE F F F F
COUNT 1 1 1 1
WIDTH 940
HEIGHT 1
VIEWPOINT 0 0 0 1 0 0 0
POINTS 940
DATA ascii
-0.83756715 -1.8099518 -3.9935112e-06 1.3829344e-38
-0.81298071 -1.8100827 -3.6436579e-06 1.3829344e-38
-0.78835726 -1.8099505 -2.7517478e-06 1.3829344e-38
-0.76323062 -1.8099526 -4.4008098e-06 1.3829344e-38
-0.73810309 -1.8099524 -4.520019e-06 1.3829344e-38
-0.71297556 -1.8099524 -4.4703484e-06 1.3829344e-38
-0.68784815 -1.8099527 -4.8925481e-06 1.3829344e-38
-0.6627205 -1.8099527 -4.5051179e-06 1.3829344e-38
-0.63759261 -1.8099514 -3.6458175e-06 1.3829344e-38
-0.61246544 -1.8099524 -4.5746565e-06 1.3829344e-38
-0.58733773 -1.8099521 -4.2319298e-06 1.3829344e-38
-0.56691247 -1.8097532 -4.0690106e-06 1.3829344e-38
0.56697142 -1.8105546 -6.9697699e-06 1.3829344e-38
0.58737028 -1.8099551 -6.750226e-06 1.3829344e-38
0.6119535 -1.809563 -6.3854714e-06 1.3829344e-38
0.6365748 -1.809955 -6.6210828e-06 1.3829344e-38
0.66170245 -1.8099552 -6.8694353e-06 1.3829344e-38
0.68683004 -1.8099551 -6.8346658e-06 1.3829344e-38
0.71195751 -1.809955 -6.7452588e-06 1.3829344e-38
0.7370851 -1.8099551 -6.6608191e-06 1.3829344e-38
0.76221257 -1.809955 -6.4770379e-06 1.3829344e-38
0.78734034 -1.8099551 -6.5217414e-06 1.3829344e-38
0.81246763 -1.8099548 -6.4472356e-06 1.3829344e-38
0.83705372 -1.8098251 -6.4217525e-06 1.3829344e-38
0.86167485 -1.809955 -6.8545341e-06 1.3829344e-38
0.88680243 -1.8099552 -6.8147979e-06 1.3829344e-38
0.91192985 -1.8099555 -6.7055225e-06 1.3829344e-38
0.93705708 -1.809955 -6.3131251e-06 1.3829344e-38
0.96218485 -1.8099545 -6.2833228e-06 1.3829344e-38
0.9873125 -1.809955 -6.5068402e-06 1.3829344e-38
1.0124401 -1.8099546 -6.6161156e-06 1.3829344e-38
1.0375677 -1.8099552 -6.8247318e-06 1.3829344e-38
1.0626953 -1.809955 -6.7204237e-06 1.3829344e-38
1.0878228 -1.809955 -6.5366426e-06 1.3829344e-38
1.1124233 -1.8095639 -7.2458515e-06 1.3829344e-38
1.1370279 -1.8099556 -7.291635e-06 1.3829344e-38
1.1621554 -1.8099561 -7.3363385e-06 1.3829344e-38
1.1872829 -1.8099556 -7.3164701e-06 1.3829344e-38
1.2124108 -1.809956 -7.4754157e-06 1.3829344e-38
1.2375382 -1.8099561 -7.4853501e-06 1.3829344e-38
1.2626656 -1.8099556 -7.2270632e-06 1.3829344e-38
1.2877932 -1.8099556 -7.132689e-06 1.3829344e-38
1.3123933 -1.8100865 -7.1214595e-06 1.3829344e-38
1.3370024 -1.8099556 -7.2469315e-06 1.3829344e-38
1.3562595 -1.8114561 -7.470449e-06 1.3829344e-38
-1.3037165 -1.7910757 -3.1590462e-06 1.3829344e-38
-1.2873946 -1.7861654 -3.6358833e-06 1.3829344e-38
-1.2624925 -1.7861644 -2.9901664e-06 1.3829344e-38
-1.2370909 -1.785812 -2.9993057e-06 1.3829344e-38
-1.211656 -1.7861656 -3.601114e-06 1.3829344e-38
-1.1867542 -1.7861654 -3.5415094e-06 1.3829344e-38
-1.1618528 -1.7861654 -3.5365422e-06 1.3829344e-38
-1.1369513 -1.7861656 -3.7252903e-06 1.3829344e-38
-1.1120497 -1.7861648 -3.3229589e-06 1.3829344e-38
-1.0871481 -1.7861654 -3.5464764e-06 1.3829344e-38
-1.062247 -1.7861662 -4.2468309e-06 1.3829344e-38
-1.0373454 -1.7861661 -4.0729842e-06 1.3829344e-38
-1.012444 -1.7861662 -4.3114028e-06 1.3829344e-38
-0.98704201 -1.7860496 -5.9032441e-06 1.3829344e-38
-0.96160477 -1.7861668 -5.0266585e-06 1.3829344e-38
-0.93670291 -1.7861665 -4.5100846e-06 1.3829344e-38
-0.91180116 -1.7861661 -4.068017e-06 1.3829344e-38
-0.88689941 -1.7861652 -3.6756198e-06 1.3829344e-38
-0.86199766 -1.7861652 -3.3875306e-06 1.3829344e-38
-0.83709645 -1.7861661 -4.1425228e-06 1.3829344e-38
-0.812195 -1.7861656 -4.0481486e-06 1.3829344e-38
-0.78729343 -1.7861656 -4.0481486e-06 1.3829344e-38
-0.76239204 -1.7861658 -4.3958426e-06 1.3829344e-38
-0.73749018 -1.7861657 -3.9388738e-06 1.3829344e-38
-0.71258855 -1.7861654 -3.5117071e-06 1.3829344e-38
-0.68768698 -1.7861652 -3.5613775e-06 1.3829344e-38
-0.66227967 -1.7858118 -3.1805039e-06 1.3829344e-38
-0.63684994 -1.7861656 -3.7898619e-06 1.3829344e-38
-0.61194885 -1.7861665 -4.9769878e-06 1.3829344e-38
-0.58704704 -1.7861667 -4.7385693e-06 1.3829344e-38
-0.5662958 -1.7861662 -4.4107437e-06 1.3829344e-38
0.566719 -1.7861692 -7.1078539e-06 1.3829344e-38
0.58747017 -1.7861685 -6.6459179e-06 1.3829344e-38
0.61237186 -1.7861689 -6.9985786e-06 1.3829344e-38
0.63727349 -1.7861687 -7.222096e-06 1.3829344e-38
0.66268516 -1.7860506 -6.9046018e-06 1.3829344e-38
0.68811297 -1.7861692 -6.8942704e-06 1.3829344e-38
0.71301454 -1.7861691 -6.8694353e-06 1.3829344e-38
0.73791623 -1.7861687 -6.9141388e-06 1.3829344e-38
0.76281786 -1.7861687 -6.8694353e-06 1.3829344e-38
0.78771919 -1.7861687 -6.6806874e-06 1.3829344e-38
0.81262094 -1.7861689 -7.0134797e-06 1.3829344e-38
0.83752269 -1.7861694 -7.2369971e-06 1.3829344e-38
0.86242414 -1.7861691 -7.0681176e-06 1.3829344e-38
0.8873257 -1.7861686 -6.8197646e-06 1.3829344e-38
0.91222721 -1.7861687 -6.8495669e-06 1.3829344e-38
0.93712884 -1.7861687 -6.8843365e-06 1.3829344e-38
0.96203059 -1.7861689 -6.9489083e-06 1.3829344e-38
0.9869321 -1.7861685 -6.8893037e-06 1.3829344e-38
1.0118338 -1.7861692 -7.1773925e-06 1.3829344e-38
1.0372605 -1.7858157 -6.828308e-06 1.3829344e-38
1.0626711 -1.7861691 -6.9737434e-06 1.3829344e-38
1.0875725 -1.7861687 -6.7651272e-06 1.3829344e-38
1.1124741 -1.7861682 -6.6161156e-06 1.3829344e-38
1.1373756 -1.7861685 -6.546577e-06 1.3829344e-38
1.1627856 -1.786286 -6.6852572e-06 1.3829344e-38
1.1882175 -1.7861687 -6.8346658e-06 1.3829344e-38
1.2131191 -1.7861687 -6.7800283e-06 1.3829344e-38
1.2380207 -1.7861686 -6.7849955e-06 1.3829344e-38
1.2629224 -1.7861687 -6.7700944e-06 1.3829344e-38
1.287824 -1.7861686 -6.6906214e-06 1.3829344e-38
1.3127257 -1.7861689 -6.7949295e-06 1.3829344e-38
1.3371898 -1.7865521 -6.535779e-06 1.3829344e-38
1.3524884 -1.7950219 -7.0333481e-06 1.3829344e-38
-1.2847108 -1.7638696 -3.4884404e-06 1.3829344e-38
-1.2623593 -1.7628026 -3.4521024e-06 1.3829344e-38
-1.2376801 -1.762803 -3.7501256e-06 1.3829344e-38
-1.2124935 -1.7626867 -3.8862227e-06 1.3829344e-38
-1.1872932 -1.7628021 -3.3577282e-06 1.3829344e-38
-1.1626135 -1.7628026 -3.3825636e-06 1.3829344e-38
-1.1379341 -1.7628022 -3.3229589e-06 1.3829344e-38
-1.1127286 -1.7629176 -3.1709671e-06 1.3829344e-38
-1.087546 -1.7628034 -4.326304e-06 1.3829344e-38
-1.0623534 -1.7624573 -4.8208235e-06 1.3829344e-38
-1.0371622 -1.7628044 -4.6143928e-06 1.3829344e-38
-1.0124823 -1.7628032 -4.1772923e-06 1.3829344e-38
-0.98780251 -1.7628031 -4.1524568e-06 1.3829344e-38
-0.96312279 -1.7628027 -3.7501256e-06 1.3829344e-38
-0.93741679 -1.7630258 -3.837622e-06 1.3829344e-38
-0.91170478 -1.7628031 -4.0233135e-06 1.3829344e-38
-0.88702518 -1.7628031 -4.0133796e-06 1.3829344e-38
-0.86234593 -1.762804 -4.5448542e-06 1.3829344e-38
-0.83766621 -1.7628037 -4.3213367e-06 1.3829344e-38
-0.81298643 -1.7628034 -4.0084124e-06 1.3829344e-38
-0.78778875 -1.7624564 -4.0102004e-06 1.3829344e-38
-0.76210195 -1.7629188 -4.0054319e-06 1.3829344e-38
-0.73689312 -1.7628031 -3.7054222e-06 1.3829344e-38
-0.7122137 -1.7628037 -4.0829182e-06 1.3829344e-38
-0.68753427 -1.7628036 -4.4703484e-06 1.3829344e-38
-0.66285449 -1.7628034 -4.1425228e-06 1.3829344e-38
-0.63765258 -1.7626876 -4.3201449e-06 1.3829344e-38
-0.61246812 -1.7628037 -4.2617321e-06 1.3829344e-38
-0.58778828 -1.7628032 -3.7848949e-06 1.3829344e-38
-0.56722194 -1.7628028 -3.6433339e-06 1.3829344e-38
0.56700402 -1.7628055 -6.0647726e-06 1.3829344e-38
0.58757049 -1.7628058 -6.3280263e-06 1.3829344e-38
0.61225015 -1.7628059 -6.4919391e-06 1.3829344e-38
0.63745141 -1.762921 -6.2322615e-06 1.3829344e-38
0.66263884 -1.7628055 -6.1641135e-06 1.3829344e-38
0.68731862 -1.7628059 -6.5118074e-06 1.3829344e-38
0.71199805 -1.7628058 -6.2932572e-06 1.3829344e-38
0.73719734 -1.7624588 -6.222725e-06 1.3829344e-38
0.76238227 -1.7628053 -6.1492124e-06 1.3829344e-38
0.78757727 -1.7631537 -6.4516066e-06 1.3829344e-38
0.81277353 -1.7628061 -6.7204237e-06 1.3829344e-38
0.83795089 -1.7626895 -6.4706801e-06 1.3829344e-38
0.86315984 -1.7628058 -6.4422688e-06 1.3829344e-38
0.8878395 -1.7628059 -6.4770379e-06 1.3829344e-38
0.91251922 -1.7628061 -6.6161156e-06 1.3829344e-38
0.9371987 -1.7628058 -6.3230596e-06 1.3829344e-38
0.9618783 -1.7628055 -6.0548387e-06 1.3829344e-38
0.98758137 -1.7625833 -6.3043376e-06 1.3829344e-38
1.013292 -1.7628056 -6.2584877e-06 1.3829344e-38
1.0379713 -1.7628053 -6.084641e-06 1.3829344e-38
1.062651 -1.7628056 -6.1392784e-06 1.3829344e-38
1.0873305 -1.762805 -5.7667494e-06 1.3829344e-38
1.1120104 -1.7628056 -6.2137842e-06 1.3829344e-38
1.1372156 -1.7626892 -6.0939788e-06 1.3829344e-38
1.162397 -1.7628056 -6.3727298e-06 1.3829344e-38
1.1870763 -1.7628056 -6.1541796e-06 1.3829344e-38
1.2117563 -1.7628059 -6.5366426e-06 1.3829344e-38
1.2374641 -1.7628068 -6.3043376e-06 1.3829344e-38
1.263172 -1.7628058 -6.3329935e-06 1.3829344e-38
1.2878515 -1.7628055 -6.1243773e-06 1.3829344e-38
1.3125314 -1.7628056 -6.2584877e-06 1.3829344e-38
1.3319098 -1.7643635 -6.510661e-06 1.3829344e-38
-1.2791045 -1.7419859 -3.606081e-06 1.3829344e-38
-1.2624371 -1.7370228 -3.7829082e-06 1.3829344e-38
-1.2380025 -1.7370225 -3.7471452e-06 1.3829344e-38
-1.2127454 -1.7368454 -3.5725534e-06 1.3829344e-38
-1.1875054 -1.7370218 -3.0676524e-06 1.3829344e-38
-1.1626595 -1.7368391 -3.8877611e-06 1.3829344e-38
-1.1374224 -1.7373899 -4.2915344e-06 1.3829344e-38
-1.1125715 -1.7370226 -3.9577485e-06 1.3829344e-38
-1.0877296 -1.7370226 -4.3069163e-06 1.3829344e-38
-1.0624853 -1.7366579 -3.9262154e-06 1.3829344e-38
-1.0376418 -1.7370225 -3.5524367e-06 1.3829344e-38
-1.0127938 -1.7372053 -3.8493063e-06 1.3829344e-38
-0.98755652 -1.7368386 -3.4724512e-06 1.3829344e-38
-0.96270841 -1.7370219 -3.3855438e-06 1.3829344e-38
-0.9382745 -1.7370231 -4.4306121e-06 1.3829344e-38
-0.91261768 -1.7370237 -3.9917049e-06 1.3829344e-38
-0.88696122 -1.7370225 -3.8623812e-06 1.3829344e-38
-0.86252701 -1.7370231 -4.7445296e-06 1.3829344e-38
-0.83767688 -1.7368391 -4.1031067e-06 1.3829344e-38
-0.81244308 -1.7372051 -3.8800699e-06 1.3829344e-38
-0.78759342 -1.7370225 -3.8226444e-06 1.3829344e-38
-0.76274675 -1.7366571 -3.745479e-06 1.3829344e-38
-0.73750585 -1.7370213 -3.5685878e-06 1.3829344e-38
-0.71266407 -1.7370226 -3.7948291e-06 1.3829344e-38
-0.68781614 -1.7373892 -3.5378241e-06 1.3829344e-38
-0.66257387 -1.7368391 -3.095596e-06 1.3829344e-38
-0.63772911 -1.7370228 -3.4809113e-06 1.3829344e-38
-0.61248791 -1.7368454 -3.1478703e-06 1.3829344e-38
-0.58723247 -1.7370225 -3.1630198e-06 1.3829344e-38
-0.56687087 -1.7370241 -4.9591063e-06 1.3829344e-38
0.56646216 -1.7367272 -6.305544e-06 1.3829344e-38
0.58726233 -1.7368486 -6.86571e-06 1.3829344e-38
0.6124987 -1.7370255 -6.6757202e-06 1.3829344e-38
0.63774043 -1.7372032 -6.5788627e-06 1.3829344e-38
0.66299903 -1.7370257 -6.6598254e-06 1.3829344e-38
0.68743354 -1.7370254 -6.508827e-06 1.3829344e-38
0.71227545 -1.7370245 -6.4219198e-06 1.3829344e-38
0.73752606 -1.7366599 -6.2719469e-06 1.3829344e-38
0.76236326 -1.7370255 -6.6757202e-06 1.3829344e-38
0.78720808 -1.7372081 -6.656493e-06 1.3829344e-38
0.81245166 -1.736842 -6.5449744e-06 1.3829344e-38
0.83729637 -1.7370254 -6.5565109e-06 1.3829344e-38
0.86215454 -1.7373923 -6.6103476e-06 1.3829344e-38
0.88777882 -1.7366705 -6.3739717e-06 1.3829344e-38
0.91304374 -1.7370249 -6.1909359e-06 1.3829344e-38
0.93747866 -1.7370255 -6.4253809e-06 1.3829344e-38
0.96233171 -1.7368423 -6.7064839e-06 1.3829344e-38
0.98755866 -1.7372081 -6.5103654e-06 1.3829344e-38
1.0124117 -1.7370255 -6.4373016e-06 1.3829344e-38
1.0372649 -1.7366599 -6.3065559e-06 1.3829344e-38
1.0624995 -1.7370248 -6.4834471e-06 1.3829344e-38
1.0877444 -1.7373921 -6.3450107e-06 1.3829344e-38
1.112594 -1.7370249 -6.2863032e-06 1.3829344e-38
1.1374346 -1.7368424 -6.5872746e-06 1.3829344e-38
1.1622765 -1.7370255 -6.6717466e-06 1.3829344e-38
1.1875204 -1.7368484 -6.4894557e-06 1.3829344e-38
1.2127728 -1.737025 -6.3260395e-06 1.3829344e-38
1.2376148 -1.7370245 -6.3603925e-06 1.3829344e-38
1.2624565 -1.737025 -6.2584877e-06 1.3829344e-38
1.2873126 -1.7368417 -6.3296288e-06 1.3829344e-38
1.3118331 -1.7380038 -6.2112149e-06 1.3829344e-38
1.3274572 -1.745542 -5.6028366e-06 1.3829344e-38
-1.2590106 -1.7127553 -3.1621832e-06 1.3829344e-38
-1.2371094 -1.7117304 -3.7153561e-06 1.3829344e-38
-1.2124177 -1.7116187 -3.6478043e-06 1.3829344e-38
-1.1877135 -1.71173 -3.7550926e-06 1.3829344e-38
-1.163007 -1.7118427 -5.5122377e-06 1.3829344e-38
-1.1378028 -1.7113976 -4.53949e-06 1.3829344e-38
-1.1126182 -1.7120646 -3.8766862e-06 1.3829344e-38
-1.0874203 -1.71162 -5.4788588e-06 1.3829344e-38
-1.0627098 -1.7117313 -4.9571195e-06 1.3829344e-38
-1.0374968 -1.7115169 -4.5849729e-06 1.3829344e-38
-1.0123067 -1.7117311 -4.5498214e-06 1.3829344e-38
-0.98759788 -1.7120657 -4.5347215e-06 1.3829344e-38
-0.96242034 -1.7116187 -4.1151047e-06 1.3829344e-38
-0.93770462 -1.7117304 -3.7699938e-06 1.3829344e-38
-0.91250205 -1.7115154 -3.3470301e-06 1.3829344e-38
-0.88730162 -1.7117301 -3.3130248e-06 1.3829344e-38
-0.86258531 -1.7116177 -3.3044814e-06 1.3829344e-38
-0.83741182 -1.7120639 -3.285408e-06 1.3829344e-38
-0.81270027 -1.7117306 -3.7252903e-06 1.3829344e-38
-0.78750885 -1.7115169 -4.4932731e-06 1.3829344e-38
-0.76229739 -1.7117306 -3.9935112e-06 1.3829344e-38
-0.73758668 -1.7116193 -4.0483474e-06 1.3829344e-38
-0.7123915 -1.7120651 -4.0197374e-06 1.3829344e-38
-0.68720126 -1.7113969 -3.6621093e-06 1.3829344e-38
-0.66200197 -1.7118417 -4.1723251e-06 1.3829344e-38
-0.63729364 -1.7117318 -5.1657357e-06 1.3829344e-38
-0.61258811 -1.71162 -5.1259995e-06 1.3829344e-38
-0.58789772 -1.7117318 -5.0514936e-06 1.3829344e-38
-0.56773567 -1.7117316 -5.0216913e-06 1.3829344e-38
0.56738019 -1.7117344 -7.7262521e-06 1.3829344e-38
0.58754212 -1.7117343 -7.4406466e-06 1.3829344e-38
0.61223441 -1.7116224 -7.338524e-06 1.3829344e-38
0.63744944 -1.711845 -7.4434279e-06 1.3829344e-38
0.66214156 -1.7117337 -7.212162e-06 1.3829344e-38
0.68734401 -1.7117347 -7.1067075e-06 1.3829344e-38
0.71304017 -1.7116219 -7.0285796e-06 1.3829344e-38
0.73774821 -1.7117343 -7.4605146e-06 1.3829344e-38
0.76245958 -1.711845 -7.3862075e-06 1.3829344e-38
0.7876491 -1.7114005 -7.1668624e-06 1.3829344e-38
0.81234568 -1.7117342 -7.2767339e-06 1.3829344e-38
0.83754021 -1.7119479 -7.3313713e-06 1.3829344e-38
0.86275268 -1.7117335 -7.1028867e-06 1.3829344e-38
0.88694733 -1.7117335 -6.9489083e-06 1.3829344e-38
0.9121514 -1.7115198 -7.1892373e-06 1.3829344e-38
0.93735033 -1.7117339 -7.4406466e-06 1.3829344e-38
0.96255535 -1.7119478 -7.1708973e-06 1.3829344e-38
0.98775762 -1.7117339 -7.3661408e-06 1.3829344e-38
1.0124657 -1.7114005 -7.1620943e-06 1.3829344e-38
1.0376396 -1.7118447 -7.1716308e-06 1.3829344e-38
1.0623547 -1.7117333 -6.9936118e-06 1.3829344e-38
1.0870667 -1.7116219 -6.9761277e-06 1.3829344e-38
1.1122583 -1.7120683 -7.3289871e-06 1.3829344e-38
1.1374538 -1.7114005 -7.1144104e-06 1.3829344e-38
1.1626498 -1.7118447 -7.1859358e-06 1.3829344e-38
1.1873595 -1.7117337 -7.0979199e-06 1.3829344e-38
1.2120659 -1.7116221 -7.1811678e-06 1.3829344e-38
1.2377633 -1.7117347 -7.0562728e-06 1.3829344e-38
1.262966 -1.7117337 -6.9836774e-06 1.3829344e-38
1.2876599 -1.7118447 -7.1954728e-06 1.3829344e-38
1.3066839 -1.7131243 -6.8346658e-06 1.3829344e-38
-1.2542864 -1.6924067 -4.7172821e-06 1.3829344e-38
-1.237831 -1.6869485 -4.4491985e-06 1.3829344e-38
-1.2126663 -1.6867793 -4.3176115e-06 1.3829344e-38
-1.1871252 -1.6871196 -3.6880374e-06 1.3829344e-38
-1.1623596 -1.6869484 -3.4411748e-06 1.3829344e-38
-1.1375966 -1.6866069 -3.1366944e-06 1.3829344e-38
-1.1124493 -1.6871233 -3.0263777e-06 1.3829344e-38
-1.08769 -1.6867725 -3.8031608e-06 1.3829344e-38
-1.0625294 -1.6872892 -3.8668513e-06 1.3829344e-38
-1.0373825 -1.686597 -3.6416516e-06 1.3829344e-38
-1.0122201 -1.6869476 -3.6023557e-06 1.3829344e-38
-0.98746234 -1.6869479 -3.1948089e-06 1.3829344e-38
-0.96230537 -1.6869484 -3.0308058e-06 1.3829344e-38
-0.93714821 -1.6869482 -2.7616818e-06 1.3829344e-38
-0.91239041 -1.6869463 -2.3730099e-06 1.3829344e-38
-0.88763332 -1.6869476 -3.3378601e-06 1.3829344e-38
-0.86247659 -1.6869488 -3.5257051e-06 1.3829344e-38
-0.83731967 -1.6869483 -3.2186508e-06 1.3829344e-38
-0.8120538 -1.6862205 -5.1140787e-06 1.3829344e-38
-0.78739756 -1.6865984 -4.8491261e-06 1.3829344e-38
-0.76225656 -1.68729 -4.3399632e-06 1.3829344e-38
-0.737091 -1.6867722 -3.9262154e-06 1.3829344e-38
-0.71233439 -1.6871237 -3.6877971e-06 1.3829344e-38
-0.68758196 -1.6865971 -3.6339607e-06 1.3829344e-38
-0.66282243 -1.6869485 -4.679926e-06 1.3829344e-38
-0.63765931 -1.6871203 -4.503876e-06 1.3829344e-38
-0.61211526 -1.6867788 -4.1611493e-06 1.3829344e-38
-0.5873518 -1.6869491 -4.975001e-06 1.3829344e-38
-0.56698638 -1.6869482 -4.4902167e-06 1.3829344e-38
0.56666315 -1.6869519 -6.8187715e-06 1.3829344e-38
0.58702826 -1.6869508 -6.714175e-06 1.3829344e-38
0.61219442 -1.6867815 -6.6384673e-06 1.3829344e-38
0.63773227 -1.6871222 -6.3627958e-06 1.3829344e-38
0.6628983 -1.6869503 -6.2296467e-06 1.3829344e-38
0.68766421 -1.6865996 -6.0642919e-06 1.3829344e-38
0.71240789 -1.6871271 -6.5911199e-06 1.3829344e-38
0.73756838 -1.6871228 -6.7651272e-06 1.3829344e-38
0.76272768 -1.6869508 -6.6141929e-06 1.3829344e-38
0.78748 -1.6866002 -6.6488019e-06 1.3829344e-38
0.81263864 -1.6869506 -6.4000487e-06 1.3829344e-38
0.83739626 -1.686951 -6.3339871e-06 1.3829344e-38
0.86255354 -1.686952 -6.4951e-06 1.3829344e-38
0.88771081 -1.6869518 -7.0373217e-06 1.3829344e-38
0.91246831 -1.6869512 -7.0258975e-06 1.3829344e-38
0.93722624 -1.6869524 -7.3989231e-06 1.3829344e-38
0.96238303 -1.6869531 -7.2934413e-06 1.3829344e-38
0.98754013 -1.6869522 -7.2956086e-06 1.3829344e-38
1.0122973 -1.6869512 -6.8470836e-06 1.3829344e-38
1.0374655 -1.6866008 -7.0525753e-06 1.3829344e-38
1.0626006 -1.6872928 -6.9402158e-06 1.3829344e-38
1.0877702 -1.6867756 -7.1102572e-06 1.3829344e-38
1.1125238 -1.6871276 -6.9756661e-06 1.3829344e-38
1.1372807 -1.6866009 -7.1217937e-06 1.3829344e-38
1.162038 -1.6869513 -7.1640939e-06 1.3829344e-38
1.1871996 -1.6871228 -7.0333481e-06 1.3829344e-38
1.2127463 -1.686782 -7.0407987e-06 1.3829344e-38
1.237908 -1.6869509 -6.8526115e-06 1.3829344e-38
1.2622663 -1.6869521 -7.1605045e-06 1.3829344e-38
1.2863272 -1.6876794 -6.9975854e-06 1.3829344e-38
1.30196 -1.6951401 -6.377697e-06 1.3829344e-38
-1.234302 -1.6636127 -3.1998284e-06 1.3829344e-38
-1.2123446 -1.6625185 -2.8514862e-06 1.3829344e-38
-1.1876143 -1.6627326 -2.8657914e-06 1.3829344e-38
-1.1633139 -1.6645359 -3.1959444e-06 1.3829344e-38
-1.1372962 -1.6650164 -3.2625701e-06 1.3829344e-38
-1.1117171 -1.6634398 -3.6747558e-06 1.3829344e-38
-1.0877644 -1.6623068 -3.967285e-06 1.3829344e-38
-1.0625713 -1.6628325 -3.4754094e-06 1.3829344e-38
-1.0373317 -1.6627336 -3.6764145e-06 1.3829344e-38
-1.0126354 -1.662306 -3.1900406e-06 1.3829344e-38
-0.98742592 -1.6628315 -2.5079801e-06 1.3829344e-38
-0.96270174 -1.6626264 -3.1590462e-06 1.3829344e-38
-0.93798339 -1.662421 -3.1682162e-06 1.3829344e-38
-0.91228187 -1.6628324 -3.1315362e-06 1.3829344e-38
-0.88756365 -1.6626271 -3.6259491e-06 1.3829344e-38
-0.8628509 -1.6624207 -3.2094808e-06 1.3829344e-38
-0.83713722 -1.6628318 -2.8977026e-06 1.3829344e-38
-0.81242496 -1.6626263 -3.233552e-06 1.3829344e-38
-0.78771853 -1.6624202 -2.838098e-06 1.3829344e-38
-0.76248634 -1.6625187 -3.3044814e-06 1.3829344e-38
-0.73729038 -1.6626284 -4.5345378e-06 1.3829344e-38
-0.71209055 -1.6627344 -4.4536591e-06 1.3829344e-38
-0.68735182 -1.6625206 -4.7159197e-06 1.3829344e-38
-0.66215217 -1.6626289 -4.8967509e-06 1.3829344e-38
-0.63694894 -1.6627343 -4.3153764e-06 1.3829344e-38
-0.61221635 -1.6625199 -4.0340424e-06 1.3829344e-38
-0.58701342 -1.6626288 -4.2823644e-06 1.3829344e-38
-0.56625158 -1.6626276 -4.2170286e-06 1.3829344e-38
0.56675094 -1.6626295 -6.1318278e-06 1.3829344e-38
0.58751309 -1.6626307 -6.4097917e-06 1.3829344e-38
0.61271787 -1.6625223 -6.2990189e-06 1.3829344e-38
0.63744652 -1.6627359 -5.9461595e-06 1.3829344e-38
0.6626516 -1.6626303 -6.3731122e-06 1.3829344e-38
0.68785304 -1.662522 -6.0653688e-06 1.3829344e-38
0.71258837 -1.6627361 -6.3467028e-06 1.3829344e-38
0.73730111 -1.6623089 -6.3085554e-06 1.3829344e-38
0.76248944 -1.6628355 -6.208053e-06 1.3829344e-38
0.7877301 -1.6627362 -6.2561035e-06 1.3829344e-38
0.81242973 -1.6623087 -5.8460237e-06 1.3829344e-38
0.83763409 -1.6628354 -6.2630725e-06 1.3829344e-38
0.86236054 -1.6626292 -6.0300031e-06 1.3829344e-38
0.88708115 -1.6624238 -6.2630725e-06 1.3829344e-38
0.91277885 -1.6628354 -6.2584877e-06 1.3829344e-38
0.93749923 -1.6626295 -6.2386193e-06 1.3829344e-38
0.96221328 -1.6624236 -6.1530332e-06 1.3829344e-38
0.9879235 -1.662835 -5.9650492e-06 1.3829344e-38
1.0126377 -1.6626296 -6.2286854e-06 1.3829344e-38
1.0373454 -1.6624234 -5.6899512e-06 1.3829344e-38
1.0625774 -1.6625221 -6.3610078e-06 1.3829344e-38
1.0872787 -1.662951 -6.2704084e-06 1.3829344e-38
1.1124778 -1.6624238 -6.0842585e-06 1.3829344e-38
1.1377124 -1.6625218 -6.0415268e-06 1.3829344e-38
1.1624267 -1.6629509 -5.9795379e-06 1.3829344e-38
1.18761 -1.6624236 -6.1163537e-06 1.3829344e-38
1.2128476 -1.6625218 -5.7744978e-06 1.3829344e-38
1.2380502 -1.6626307 -6.3272623e-06 1.3829344e-38
1.2632555 -1.6627361 -6.1559676e-06 1.3829344e-38
1.2819003 -1.6639668 -5.9505305e-06 1.3829344e-38
-1.229318 -1.6433779 -2.9802322e-06 1.3829344e-38
-1.2125889 -1.6386226 -2.9951334e-06 1.3829344e-38
-1.1875371 -1.6389525 -4.6789646e-06 1.3829344e-38
-1.1624529 -1.6384598 -4.9695373e-06 1.3829344e-38
-1.1373961 -1.638787 -4.5634806e-06 1.3829344e-38
-1.1123302 -1.6391162 -4.9993396e-06 1.3829344e-38
-1.0872573 -1.638624 -4.6752393e-06 1.3829344e-38
-1.0625838 -1.6386173 -4.2838433e-06 1.3829344e-38
-1.0375147 -1.638788 -3.930294e-06 1.3829344e-38
-1.0120542 -1.6387851 -3.028661e-06 1.3829344e-38
-0.98736274 -1.6391256 -3.3340145e-06 1.3829344e-38
-0.96271604 -1.6384581 -3.4607947e-06 1.3829344e-38
-0.93763292 -1.6387856 -2.9057264e-06 1.3829344e-38
-0.91217327 -1.6387868 -3.1897516e-06 1.3829344e-38
-0.88709474 -1.6386173 -3.945443e-06 1.3829344e-38
-0.86283123 -1.6389555 -3.3724693e-06 1.3829344e-38
-0.83775228 -1.6387875 -3.5546043e-06 1.3829344e-38
-0.81229252 -1.6387862 -3.7774444e-06 1.3829344e-38
-0.78721642 -1.6384588 -3.5986304e-06 1.3829344e-38
-0.76255578 -1.6391264 -3.780088e-06 1.3829344e-38
-0.73787117 -1.6387862 -3.5464764e-06 1.3829344e-38
-0.71280497 -1.6384586 -3.2298267e-06 1.3829344e-38
-0.6877355 -1.6389512 -3.4198165e-06 1.3829344e-38
-0.66267258 -1.6386225 -3.118068e-06 1.3829344e-38
-0.6375894 -1.6391146 -3.0435622e-06 1.3829344e-38
-0.61215395 -1.6384697 -4.2373485e-06 1.3829344e-38
-0.58707386 -1.6387866 -4.1069525e-06 1.3829344e-38
-0.56709754 -1.638787 -3.7312507e-06 1.3829344e-38
0.56683588 -1.6392913 -7.2717667e-06 1.3829344e-38
0.58758509 -1.6386253 -7.2158873e-06 1.3829344e-38
0.61267453 -1.6386266 -7.0109963e-06 1.3829344e-38
0.637725 -1.638955 -7.4096024e-06 1.3829344e-38
0.66241026 -1.6387897 -7.0641117e-06 1.3829344e-38
0.68709111 -1.6386273 -7.5250864e-06 1.3829344e-38
0.71215129 -1.6389552 -7.417053e-06 1.3829344e-38
0.73722488 -1.6384625 -7.2903931e-06 1.3829344e-38
0.76228845 -1.6387899 -7.2009861e-06 1.3829344e-38
0.78736162 -1.6391182 -6.8917871e-06 1.3829344e-38
0.81242406 -1.6386268 -7.353723e-06 1.3829344e-38
0.83709681 -1.6386205 -6.9872026e-06 1.3829344e-38
0.8621698 -1.6387916 -7.5210223e-06 1.3829344e-38
0.88762975 -1.6387901 -7.4729323e-06 1.3829344e-38
0.91308957 -1.6387913 -7.24648e-06 1.3829344e-38
0.93776602 -1.6387904 -7.1366626e-06 1.3829344e-38
0.96205086 -1.6387895 -6.8731606e-06 1.3829344e-38
0.98751092 -1.6387911 -7.239255e-06 1.3829344e-38
1.0129707 -1.6387897 -7.0743263e-06 1.3829344e-38
1.0376583 -1.6384529 -7.5101852e-06 1.3829344e-38
1.0623133 -1.6391183 -7.2605908e-06 1.3829344e-38
1.087392 -1.6387898 -7.3686242e-06 1.3829344e-38
1.1124618 -1.6384634 -8.1919134e-06 1.3829344e-38
1.1375268 -1.6389554 -7.6591969e-06 1.3829344e-38
1.1625925 -1.6386273 -7.6442957e-06 1.3829344e-38
1.1872708 -1.6387904 -7.8178218e-06 1.3829344e-38
1.2119532 -1.6389555 -7.7970326e-06 1.3829344e-38
1.2374012 -1.6386319 -8.066495e-06 1.3829344e-38
1.2621763 -1.6394904 -7.5499215e-06 1.3829344e-38
1.2774386 -1.6466682 -5.7816505e-06 1.3829344e-38
-1.2096795 -1.6143802 -2.918036e-06 1.3829344e-38
-1.1876094 -1.6125048 -3.1680772e-06 1.3829344e-38
-1.1624397 -1.6131374 -2.6412308e-06 1.3829344e-38
-1.1376203 -1.6126559 -2.6039779e-06 1.3829344e-38
-1.1124339 -1.6129733 -4.226511e-06 1.3829344e-38
-1.0872394 -1.6126573 -3.8594007e-06 1.3829344e-38
-1.0624326 -1.6129786 -3.6917627e-06 1.3829344e-38
-1.0376364 -1.6124961 -3.9339066e-06 1.3829344e-38
-1.0128268 -1.6128168 -3.9748847e-06 1.3829344e-38
-0.98763376 -1.6128175 -3.4895811e-06 1.3829344e-38
-0.96244091 -1.6128156 -3.1888485e-06 1.3829344e-38
-0.93724811 -1.6128166 -2.7020772e-06 1.3829344e-38
-0.91205579 -1.6128156 -2.8982759e-06 1.3829344e-38
-0.88686275 -1.6128165 -2.5539687e-06 1.3829344e-38
-0.8620488 -1.6126496 -2.5072407e-06 1.3829344e-38
-0.83763599 -1.6126575 -4.55603e-06 1.3829344e-38
-0.81285065 -1.613139 -4.4107437e-06 1.3829344e-38
-0.78803122 -1.6128173 -4.0382147e-06 1.3829344e-38
-0.76283854 -1.612818 -3.9339066e-06 1.3829344e-38
-0.73764569 -1.6128159 -3.4719706e-06 1.3829344e-38
-0.71284282 -1.6124954 -3.6098063e-06 1.3829344e-38
-0.68764657 -1.6131294 -4.6961236e-06 1.3829344e-38
-0.66246474 -1.6124969 -4.734844e-06 1.3829344e-38
-0.63764834 -1.6129793 -5.1930547e-06 1.3829344e-38
-0.61246771 -1.6126629 -5.5269761e-06 1.3829344e-38
-0.58725989 -1.6129795 -5.222857e-06 1.3829344e-38
-0.56672031 -1.61233 -4.8648744e-06 1.3829344e-38
0.56654382 -1.6128186 -6.2897093e-06 1.3829344e-38
0.58748627 -1.6129758 -5.9496274e-06 1.3829344e-38
0.61265206 -1.6126578 -6.1132014e-06 1.3829344e-38
0.63747787 -1.6126589 -5.8710575e-06 1.3829344e-38
0.66226882 -1.6129806 -6.3814223e-06 1.3829344e-38
0.6874724 -1.6126635 -6.4409141e-06 1.3829344e-38
0.71265715 -1.6129805 -6.2771142e-06 1.3829344e-38
0.73746741 -1.6124978 -5.7965517e-06 1.3829344e-38
0.76226813 -1.6128187 -6.0871243e-06 1.3829344e-38
0.78746068 -1.61282 -6.1266351e-06 1.3829344e-38
0.81265324 -1.6128184 -5.9604645e-06 1.3829344e-38
0.83784598 -1.6128199 -6.1844335e-06 1.3829344e-38
0.86303854 -1.6128187 -6.0498714e-06 1.3829344e-38
0.88786197 -1.6131406 -6.1169267e-06 1.3829344e-38
0.91224229 -1.6124885 -6.2950194e-06 1.3829344e-38
0.93667853 -1.6128187 -6.1020255e-06 1.3829344e-38
0.96187115 -1.6128197 -5.7581701e-06 1.3829344e-38
0.98706359 -1.6128184 -5.7555735e-06 1.3829344e-38
1.0122567 -1.6128201 -6.260294e-06 1.3829344e-38
1.0374491 -1.6128187 -6.1504543e-06 1.3829344e-38
1.0626416 -1.61282 -6.0688367e-06 1.3829344e-38
1.0878341 -1.6128186 -5.9865415e-06 1.3829344e-38
1.1126399 -1.6124979 -5.7406723e-06 1.3829344e-38
1.1374426 -1.61298 -6.031245e-06 1.3829344e-38
1.162245 -1.612659 -5.9939921e-06 1.3829344e-38
1.1874436 -1.6129749 -6.0868988e-06 1.3829344e-38
1.2126267 -1.6126589 -5.9381127e-06 1.3829344e-38
1.237832 -1.6129746 -5.964077e-06 1.3829344e-38
1.2569544 -1.6148747 -5.8650971e-06 1.3829344e-38
-1.203796 -1.5924217 -3.7636075e-06 1.3829344e-38
-1.1873235 -1.5872351 -4.5155034e-06 1.3829344e-38
-1.1624036 -1.5875452 -4.1425228e-06 1.3829344e-38
-1.1374645 -1.5872344 -4.0422788e-06 1.3829344e-38
-1.1125387 -1.5875452 -4.1723251e-06 1.3829344e-38
-1.0876056 -1.5872341 -3.6774259e-06 1.3829344e-38
-1.0622898 -1.5875388 -3.6413019e-06 1.3829344e-38
-1.0373631 -1.5872296 -3.2074749e-06 1.3829344e-38
-1.0124242 -1.5875379 -2.5214572e-06 1.3829344e-38
-0.98712784 -1.5870807 -3.0344183e-06 1.3829344e-38
-0.9618023 -1.5873864 -2.449209e-06 1.3829344e-38
-0.93687135 -1.5873851 -2.5108457e-06 1.3829344e-38
-0.91194147 -1.5873878 -4.0964646e-06 1.3829344e-38
-0.88701051 -1.5873868 -3.9041042e-06 1.3829344e-38
-0.8620795 -1.5873882 -4.0314412e-06 1.3829344e-38
-0.83714867 -1.5873864 -4.1984022e-06 1.3829344e-38
-0.81221771 -1.5873876 -3.8183098e-06 1.3829344e-38
-0.78728682 -1.5873859 -3.6582351e-06 1.3829344e-38
-0.76235563 -1.5873868 -3.3812089e-06 1.3829344e-38
-0.73742467 -1.5873853 -2.82377e-06 1.3829344e-38
-0.71249408 -1.587387 -3.3812089e-06 1.3829344e-38
-0.68718493 -1.5870818 -3.5184803e-06 1.3829344e-38
-0.66224307 -1.5877005 -2.8908253e-06 1.3829344e-38
-0.6373297 -1.5870825 -3.919457e-06 1.3829344e-38
-0.61237514 -1.5877014 -3.7625432e-06 1.3829344e-38
-0.58747399 -1.5870817 -3.5257051e-06 1.3829344e-38
-0.56674767 -1.5873861 -4.0928521e-06 1.3829344e-38
0.56702155 -1.5878688 -5.3417116e-06 1.3829344e-38
0.5873397 -1.5872308 -5.7332218e-06 1.3829344e-38
0.61266613 -1.5873896 -5.4660964e-06 1.3829344e-38
0.63759714 -1.5873884 -5.798955e-06 1.3829344e-38
0.66252804 -1.5873898 -5.8868354e-06 1.3829344e-38
0.68785006 -1.5870742 -5.5879354e-06 1.3829344e-38
0.71276575 -1.5876939 -5.6064491e-06 1.3829344e-38
0.73770541 -1.5870743 -5.569309e-06 1.3829344e-38
0.76263392 -1.5876939 -5.5125265e-06 1.3829344e-38
0.7875607 -1.587074 -5.3197145e-06 1.3829344e-38
0.81211025 -1.5873884 -5.7928264e-06 1.3829344e-38
0.83704096 -1.5873893 -5.5016894e-06 1.3829344e-38
0.86197203 -1.587388 -5.5916607e-06 1.3829344e-38
0.88690293 -1.5873893 -5.7437205e-06 1.3829344e-38
0.9118337 -1.5873879 -5.4389238e-06 1.3829344e-38
0.93676448 -1.5873891 -5.2054725e-06 1.3829344e-38
0.96209848 -1.5870836 -5.6028366e-06 1.3829344e-38
0.98738235 -1.5875412 -5.6823096e-06 1.3829344e-38
1.012713 -1.587236 -5.6208987e-06 1.3829344e-38
1.0376304 -1.5875461 -5.5059791e-06 1.3829344e-38
1.0625716 -1.5872357 -5.3824801e-06 1.3829344e-38
1.0874956 -1.5875461 -5.3755939e-06 1.3829344e-38
1.1124302 -1.5872357 -5.3499684e-06 1.3829344e-38
1.1373607 -1.5875462 -5.6177378e-06 1.3829344e-38
1.162289 -1.5872359 -5.5739374e-06 1.3829344e-38
1.1872256 -1.5875462 -5.6624413e-06 1.3829344e-38
1.2121477 -1.5872358 -5.364418e-06 1.3829344e-38
1.236838 -1.5882 -5.3067361e-06 1.3829344e-38
1.2525523 -1.5974749 -4.6491623e-06 1.3829344e-38
-1.1843361 -1.5639797 -4.0323839e-06 1.3829344e-38
-1.1623672 -1.5624803 -3.8182034e-06 1.3829344e-38
-1.1373076 -1.5621709 -3.4272671e-06 1.3829344e-38
-1.1126429 -1.5627778 -3.1861391e-06 1.3829344e-38
-1.0875846 -1.5623298 -3.1319532e-06 1.3829344e-38
-1.0625291 -1.5626284 -3.3848214e-06 1.3829344e-38
-1.037483 -1.5621803 -3.0163562e-06 1.3829344e-38
-1.0124246 -1.5624795 -3.2908988e-06 1.3829344e-38
-0.98775071 -1.56248 -4.5076013e-06 1.3829344e-38
-0.96307611 -1.5624806 -4.2301235e-06 1.3829344e-38
-0.93726283 -1.5624803 -4.4243675e-06 1.3829344e-38
-0.91182923 -1.56248 -4.6938658e-06 1.3829344e-38
-0.8871544 -1.5624804 -4.233736e-06 1.3829344e-38
-0.86247981 -1.5624796 -4.1872263e-06 1.3829344e-38
-0.83780503 -1.56248 -3.8291469e-06 1.3829344e-38
-0.81274015 -1.5621804 -3.1355655e-06 1.3829344e-38
-0.78770322 -1.5626283 -3.103054e-06 1.3829344e-38
-0.76264167 -1.5623298 -3.1969764e-06 1.3829344e-38
-0.73759234 -1.5627778 -3.175302e-06 1.3829344e-38
-0.71253449 -1.5624808 -4.3457203e-06 1.3829344e-38
-0.68748534 -1.5621805 -3.7532864e-06 1.3829344e-38
-0.66242498 -1.5626289 -3.8761082e-06 1.3829344e-38
-0.63737911 -1.56233 -3.767736e-06 1.3829344e-38
-0.61269283 -1.5626333 -3.3378601e-06 1.3829344e-38
-0.58803308 -1.5623295 -3.7713485e-06 1.3829344e-38
-0.56713271 -1.5627041 -3.8146973e-06 1.3829344e-38
0.56673431 -1.5624813 -6.7608698e-06 1.3829344e-38
0.58761275 -1.5624826 -6.6266339e-06 1.3829344e-38
0.61305517 -1.5623332 -7.2789917e-06 1.3829344e-38
0.63771266 -1.5626372 -7.0221722e-06 1.3829344e-38
0.6624015 -1.5623333 -7.6691313e-06 1.3829344e-38
0.68744498 -1.5626324 -7.7486038e-06 1.3829344e-38
0.71250886 -1.5621843 -7.6402321e-06 1.3829344e-38
0.7375555 -1.5624835 -7.4198751e-06 1.3829344e-38
0.76261169 -1.562782 -7.553534e-06 1.3829344e-38
0.78766465 -1.5623335 -7.7088671e-06 1.3829344e-38
0.81272382 -1.5626321 -7.4234877e-06 1.3829344e-38
0.83776444 -1.5621846 -7.7955647e-06 1.3829344e-38
0.86282676 -1.5624837 -7.6077199e-06 1.3829344e-38
0.88750112 -1.5624824 -7.1786344e-06 1.3829344e-38
0.91217566 -1.5624837 -7.5896583e-06 1.3829344e-38
0.93685049 -1.5624825 -7.6554716e-06 1.3829344e-38
0.96228421 -1.5624831 -7.5340272e-06 1.3829344e-38
0.98809791 -1.5624844 -7.914774e-06 1.3829344e-38
1.0127722 -1.5624825 -7.4617565e-06 1.3829344e-38
1.0374469 -1.5624835 -7.3476272e-06 1.3829344e-38
1.0625076 -1.5621845 -7.5354719e-06 1.3829344e-38
1.0875502 -1.5626322 -7.4090381e-06 1.3829344e-38
1.1126081 -1.5623333 -7.3512397e-06 1.3829344e-38
1.137663 -1.5627824 -7.8244639e-06 1.3829344e-38
1.1623324 -1.562175 -7.50646e-06 1.3829344e-38
1.187389 -1.5624837 -7.3489023e-06 1.3829344e-38
1.2128295 -1.5626324 -7.625782e-06 1.3829344e-38
1.2315387 -1.564455 -7.1843465e-06 1.3829344e-38
-1.1787938 -1.54291 -2.7929034e-06 1.3829344e-38
-1.162791 -1.5404879 -2.7830783e-06 1.3829344e-38
-1.1378827 -1.5404007 -4.229722e-06 1.3829344e-38
-1.112476 -1.5405797 -3.8809249e-06 1.3829344e-38
-1.0867912 -1.5392419 -3.4652908e-06 1.3829344e-38
-1.062393 -1.5379378 -3.7480804e-06 1.3829344e-38
-1.0375924 -1.5380785 -3.3117831e-06 1.3829344e-38
-1.0127881 -1.5382205 -2.7768751e-06 1.3829344e-38
-0.98724759 -1.5379362 -2.4262597e-06 1.3829344e-38
-0.96244323 -1.5380772 -2.335757e-06 1.3829344e-38
-0.93802059 -1.5380796 -3.6629763e-06 1.3829344e-38
-0.91306788 -1.5376276 -3.6172569e-06 1.3829344e-38
-0.88686687 -1.5369664 -3.9384913e-06 1.3829344e-38
-0.86287177 -1.53808 -4.0278292e-06 1.3829344e-38
-0.83768338 -1.5377947 -3.695488e-06 1.3829344e-38
-0.81253511 -1.5383717 -3.3703718e-06 1.3829344e-38
-0.78772277 -1.5380801 -3.9664183e-06 1.3829344e-38
-0.76254362 -1.5377944 -3.6989941e-06 1.3829344e-38
-0.73737669 -1.5383722 -3.319798e-06 1.3829344e-38
-0.71257311 -1.5380793 -2.7923872e-06 1.3829344e-38
-0.68777913 -1.5377855 -2.5395191e-06 1.3829344e-38
-0.66259444 -1.5383623 -3.4220079e-06 1.3829344e-38
-0.63742447 -1.5380794 -3.2258756e-06 1.3829344e-38
-0.61263961 -1.5377862 -3.4209454e-06 1.3829344e-38
-0.58782101 -1.5382259 -4.4540925e-06 1.3829344e-38
-0.56717658 -1.5378608 -4.0964646e-06 1.3829344e-38
0.56682771 -1.538083 -5.857511e-06 1.3829344e-38
0.5874939 -1.5380802 -6.1519218e-06 1.3829344e-38
0.61227864 -1.5379357 -6.0290999e-06 1.3829344e-38
0.63709736 -1.5379345 -5.8665419e-06 1.3829344e-38
0.66188318 -1.5382277 -6.1555343e-06 1.3829344e-38
0.68706489 -1.5380818 -6.1848586e-06 1.3829344e-38
0.71224189 -1.5379345 -5.9171157e-06 1.3829344e-38
0.73741382 -1.5379395 -6.0726616e-06 1.3829344e-38
0.76258838 -1.5383742 -6.2386193e-06 1.3829344e-38
0.78738636 -1.5379345 -6.0254879e-06 1.3829344e-38
0.81255841 -1.5379395 -6.1322662e-06 1.3829344e-38
0.83735996 -1.5380805 -5.800277e-06 1.3829344e-38
0.86216569 -1.5382235 -5.6764657e-06 1.3829344e-38
0.88770282 -1.5379392 -5.8868354e-06 1.3829344e-38
0.91250873 -1.5380803 -5.7518482e-06 1.3829344e-38
0.9369325 -1.5380821 -6.2277823e-06 1.3829344e-38
0.96248299 -1.5380815 -6.2022891e-06 1.3829344e-38
0.98765785 -1.5380806 -5.8449805e-06 1.3829344e-38
1.0120816 -1.5380818 -6.0290999e-06 1.3829344e-38
1.0372657 -1.5377964 -5.8763167e-06 1.3829344e-38
1.0624212 -1.5383737 -5.6172862e-06 1.3829344e-38
1.0872304 -1.5380818 -5.9279528e-06 1.3829344e-38
1.112406 -1.5377965 -5.8272308e-06 1.3829344e-38
1.1375796 -1.5383739 -5.732883e-06 1.3829344e-38
1.1623795 -1.5380816 -5.8304181e-06 1.3829344e-38
1.187546 -1.5377966 -5.8938476e-06 1.3829344e-38
1.2121027 -1.53886 -5.8874007e-06 1.3829344e-38
1.2274028 -1.5477606 -4.8875809e-06 1.3829344e-38
-1.1588457 -1.51367 -3.3974648e-06 1.3829344e-38
-1.1373357 -1.5118154 -3.5554172e-06 1.3829344e-38
-1.1122481 -1.5117571 -2.8523002e-06 1.3829344e-38
-1.0874857 -1.5118738 -2.9557791e-06 1.3829344e-38
-1.0627122 -1.5116419 -2.8697457e-06 1.3829344e-38
-1.0373122 -1.5119861 -2.4423366e-06 1.3829344e-38
-1.0129471 -1.5127285 -2.9404957e-06 1.3829344e-38
-0.98786151 -1.5141701 -2.8935347e-06 1.3829344e-38
-0.96204275 -1.5130533 -2.5222175e-06 1.3829344e-38
-0.93760747 -1.5116323 -2.8182299e-06 1.3829344e-38
-0.91252869 -1.5118135 -2.3643177e-06 1.3829344e-38
-0.88744479 -1.5119959 -2.7081906e-06 1.3829344e-38
-0.86236292 -1.5118146 -2.9887472e-06 1.3829344e-38
-0.83728665 -1.5116326 -2.4667154e-06 1.3829344e-38
-0.81250346 -1.5116431 -4.0502082e-06 1.3829344e-38
-0.78742725 -1.5121696 -4.0590762e-06 1.3829344e-38
-0.76266181 -1.5114598 -3.85046e-06 1.3829344e-38
-0.73757839 -1.5119874 -3.9658894e-06 1.3829344e-38
-0.71248674 -1.5116975 -3.5464764e-06 1.3829344e-38
-0.68772084 -1.5118126 -3.1203031e-06 1.3829344e-38
-0.66264492 -1.511757 -2.834855e-06 1.3829344e-38
-0.63785446 -1.5115101 -2.616491e-06 1.3829344e-38
-0.61232191 -1.5105984 -3.1091072e-06 1.3829344e-38
-0.5876981 -1.5117571 -2.834855e-06 1.3829344e-38
-0.56278735 -1.5115089 -2.8090599e-06 1.3829344e-38
-0.53742123 -1.5093043 -4.4035187e-06 1.3829344e-38
-0.51253986 -1.5094471 -3.9724741e-06 1.3829344e-38
-0.48728999 -1.5093083 -3.9935112e-06 1.3829344e-38
-0.46242791 -1.5094454 -4.1614881e-06 1.3829344e-38
-0.43756133 -1.5095859 -4.0916834e-06 1.3829344e-38
-0.41231266 -1.5094467 -3.604328e-06 1.3829344e-38
-0.38743639 -1.5090168 -3.175302e-06 1.3829344e-38
-0.36257505 -1.509722 -2.8049244e-06 1.3829344e-38
-0.33732826 -1.5095854 -3.6884758e-06 1.3829344e-38
-0.31245962 -1.5093043 -3.4498446e-06 1.3829344e-38
-0.28759593 -1.5091693 -4.0846712e-06 1.3829344e-38
-0.26233679 -1.5097252 -5.7080215e-06 1.3829344e-38
-0.23746639 -1.5095921 -5.1332245e-06 1.3829344e-38
-0.21299928 -1.5090191 -4.7575345e-06 1.3829344e-38
-0.18773447 -1.5094472 -4.2813167e-06 1.3829344e-38
-0.16209751 -1.5097231 -3.8041787e-06 1.3829344e-38
-0.13761765 -1.5094473 -3.490597e-06 1.3829344e-38
-0.11314718 -1.5091681 -3.3308479e-06 1.3829344e-38
-0.087507337 -1.5094458 -3.5796847e-06 1.3829344e-38
-0.061522573 -1.5094471 -4.2779106e-06 1.3829344e-38
-0.037393812 -1.5094469 -3.8544335e-06 1.3829344e-38
-0.013265084 -1.5094471 -4.3630598e-06 1.3829344e-38
0.012719706 -1.5094481 -5.3576059e-06 1.3829344e-38
0.038704529 -1.5094478 -5.0544741e-06 1.3829344e-38
0.062833279 -1.5094476 -4.9869218e-06 1.3829344e-38
0.086962022 -1.509447 -4.7854014e-06 1.3829344e-38
0.11294679 -1.509447 -4.2404449e-06 1.3829344e-38
0.13786343 -1.509005 -3.8146973e-06 1.3829344e-38
0.16190253 -1.5098743 -3.2583873e-06 1.3829344e-38
0.18718901 -1.5094463 -3.528595e-06 1.3829344e-38
0.21282235 -1.5091691 -4.1723251e-06 1.3829344e-38
0.23767932 -1.509305 -4.3240461e-06 1.3829344e-38
0.2621482 -1.5098766 -5.6208987e-06 1.3829344e-38
0.28741649 -1.5094489 -6.3214984e-06 1.3829344e-38
0.31267118 -1.5090204 -6.8816271e-06 1.3829344e-38
0.33752561 -1.5094496 -6.4969063e-06 1.3829344e-38
0.36239386 -1.5098772 -6.3686662e-06 1.3829344e-38
0.38727161 -1.5091715 -6.7844112e-06 1.3829344e-38
0.41251001 -1.5093108 -6.738831e-06 1.3829344e-38
0.43775293 -1.50945 -6.8334971e-06 1.3829344e-38
0.46300033 -1.5095876 -6.6652019e-06 1.3829344e-38
0.48786792 -1.5094478 -6.3722782e-06 1.3829344e-38
0.51273131 -1.5093105 -6.63014e-06 1.3829344e-38
0.53798014 -1.5094495 -6.5214494e-06 1.3829344e-38
0.56333739 -1.5108572 -6.3728644e-06 1.3829344e-38
0.58741963 -1.5120535 -6.4879655e-06 1.3829344e-38
0.6121996 -1.5115807 -6.2644481e-06 1.3829344e-38
0.6372844 -1.5116444 -6.1407322e-06 1.3829344e-38
0.66266298 -1.51199 -6.2046984e-06 1.3829344e-38
0.68775809 -1.5120531 -5.9992076e-06 1.3829344e-38
0.7125178 -1.5115807 -6.2704084e-06 1.3829344e-38
0.73760545 -1.5116445 -6.2046984e-06 1.3829344e-38
0.76269346 -1.5119359 -6.2584877e-06 1.3829344e-38
0.78746033 -1.5118154 -6.3896177e-06 1.3829344e-38
0.81222314 -1.5116998 -6.0647726e-06 1.3829344e-38
0.83762312 -1.511817 -5.9491113e-06 1.3829344e-38
0.86271089 -1.5116355 -6.2722424e-06 1.3829344e-38
0.8874858 -1.5121047 -6.7047959e-06 1.3829344e-38
0.91254699 -1.5117003 -6.8843365e-06 1.3829344e-38
0.93702275 -1.511636 -6.7827027e-06 1.3829344e-38
0.96210337 -1.5118177 -6.6700436e-06 1.3829344e-38
0.98750782 -1.5117004 -6.7442656e-06 1.3829344e-38
1.0125705 -1.5121046 -6.5448808e-06 1.3829344e-38
1.0373433 -1.5116357 -6.5167746e-06 1.3829344e-38
1.0624317 -1.5118177 -6.6955886e-06 1.3829344e-38
1.0878309 -1.5117002 -6.8515537e-06 1.3829344e-38
1.1125944 -1.5118161 -6.6518783e-06 1.3829344e-38
1.1373619 -1.5119363 -6.6399575e-06 1.3829344e-38
1.1624484 -1.5116445 -6.460562e-06 1.3829344e-38
1.1875359 -1.5115811 -6.598234e-06 1.3829344e-38
1.2061845 -1.5152289 -6.298224e-06 1.3829344e-38
-1.153545 -1.491654 -4.0054319e-06 1.3829344e-38
-1.1375048 -1.4861087 -4.1042053e-06 1.3829344e-38
-1.1125143 -1.4862486 -3.731612e-06 1.3829344e-38
-1.0875204 -1.4861082 -3.2799585e-06 1.3829344e-38
-1.0625331 -1.4858271 -2.7851625e-06 1.3829344e-38
-1.0375406 -1.4861071 -2.4386816e-06 1.3829344e-38
-1.0125501 -1.4861087 -3.0777671e-06 1.3829344e-38
-0.98755866 -1.4861075 -2.8065272e-06 1.3829344e-38
-0.96218455 -1.4863799 -3.4921309e-06 1.3829344e-38
-0.93759334 -1.4858286 -3.5618291e-06 1.3829344e-38
-0.91258562 -1.4861084 -3.2152448e-06 1.3829344e-38
-0.88759518 -1.4861097 -4.3746195e-06 1.3829344e-38
-0.86260408 -1.4861088 -3.8657868e-06 1.3829344e-38
-0.83723265 -1.4858365 -3.895339e-06 1.3829344e-38
-0.81263483 -1.486388 -3.507643e-06 1.3829344e-38
-0.7876302 -1.4861076 -3.0858175e-06 1.3829344e-38
-0.7622695 -1.4859723 -2.9942569e-06 1.3829344e-38
-0.7372824 -1.4862442 -3.0643801e-06 1.3829344e-38
-0.71229106 -1.4858351 -2.454309e-06 1.3829344e-38
-0.68730152 -1.4861093 -3.7515865e-06 1.3829344e-38
-0.66230279 -1.48638 -3.895339e-06 1.3829344e-38
-0.63732189 -1.4859735 -3.9023512e-06 1.3829344e-38
-0.61270177 -1.4859689 -4.7394724e-06 1.3829344e-38
-0.5877049 -1.4861093 -4.1757312e-06 1.3829344e-38
-0.56234604 -1.4861087 -3.6358833e-06 1.3829344e-38
-0.53734434 -1.4859723 -3.2221569e-06 1.3829344e-38
-0.51236153 -1.4863787 -3.0608737e-06 1.3829344e-38
-0.48775348 -1.4859678 -3.6304648e-06 1.3829344e-38
-0.46274915 -1.4861077 -3.3957617e-06 1.3829344e-38
-0.43739051 -1.4861083 -3.1590462e-06 1.3829344e-38
-0.41239658 -1.4859731 -4.0320788e-06 1.3829344e-38
-0.38740674 -1.4858359 -3.6113402e-06 1.3829344e-38
-0.36242223 -1.4863805 -4.2564729e-06 1.3829344e-38
-0.33742672 -1.4862458 -4.691236e-06 1.3829344e-38
-0.31243527 -1.48611 -4.5054098e-06 1.3829344e-38
-0.28744838 -1.4859738 -4.1267449e-06 1.3829344e-38
-0.26246589 -1.485836 -3.6604265e-06 1.3829344e-38
-0.23709872 -1.4861076 -3.1573431e-06 1.3829344e-38
-0.21208112 -1.4865284 -3.5618291e-06 1.3829344e-38
-0.18747959 -1.4861083 -2.9627015e-06 1.3829344e-38
-0.16289183 -1.4856884 -3.9375191e-06 1.3829344e-38
-0.13786957 -1.4861091 -4.4584276e-06 1.3829344e-38
-0.11214339 -1.4861089 -4.1961671e-06 1.3829344e-38
-0.086417377 -1.4861106 -5.6368963e-06 1.3829344e-38
-0.062528759 -1.4861101 -5.0067902e-06 1.3829344e-38
-0.038640186 -1.4861099 -4.7819954e-06 1.3829344e-38
-0.012914054 -1.4861097 -5.0715039e-06 1.3829344e-38
0.012812092 -1.4861101 -5.02382e-06 1.3829344e-38
0.038538232 -1.4861096 -4.8058373e-06 1.3829344e-38
0.062426779 -1.4861093 -4.3233235e-06 1.3829344e-38
0.086315304 -1.4861084 -3.824915e-06 1.3829344e-38
0.11204144 -1.4861087 -3.8964408e-06 1.3829344e-38
0.13776755 -1.4861087 -3.6103386e-06 1.3829344e-38
0.16315153 -1.4858365 -4.0706468e-06 1.3829344e-38
0.18775843 -1.4859711 -5.7075963e-06 1.3829344e-38
0.21197142 -1.4865302 -5.6172862e-06 1.3829344e-38
0.23699711 -1.4861104 -5.6334902e-06 1.3829344e-38
0.26272327 -1.4861097 -5.3167341e-06 1.3829344e-38
0.28773087 -1.485689 -4.8586817e-06 1.3829344e-38
0.31233346 -1.4861099 -5.0558765e-06 1.3829344e-38
0.33732229 -1.4862461 -5.4696029e-06 1.3829344e-38
0.36231557 -1.4863816 -5.9499462e-06 1.3829344e-38
0.38731045 -1.4858381 -5.8412552e-06 1.3829344e-38
0.41229779 -1.4859749 -6.0656494e-06 1.3829344e-38
0.43728921 -1.4861108 -5.7676261e-06 1.3829344e-38
0.46264791 -1.4861103 -5.7424818e-06 1.3829344e-38
0.48801288 -1.4862462 -5.6133549e-06 1.3829344e-38
0.51263165 -1.4861094 -5.8376427e-06 1.3829344e-38
0.53724599 -1.4859746 -5.7185398e-06 1.3829344e-38
0.56224501 -1.4861115 -6.0621428e-06 1.3829344e-38
0.58760339 -1.4861102 -5.5892128e-06 1.3829344e-38
0.61260295 -1.4859703 -5.8520923e-06 1.3829344e-38
0.63758433 -1.4861102 -5.8071955e-06 1.3829344e-38
0.66257012 -1.4862499 -5.6028366e-06 1.3829344e-38
0.68720055 -1.4861107 -5.7606135e-06 1.3829344e-38
0.7125591 -1.4861104 -5.8276314e-06 1.3829344e-38
0.73755091 -1.48597 -5.8809915e-06 1.3829344e-38
0.76217169 -1.4859749 -5.8693045e-06 1.3829344e-38
0.78752941 -1.48611 -5.4904394e-06 1.3829344e-38
0.81252855 -1.4863904 -5.6570225e-06 1.3829344e-38
0.83713675 -1.4858378 -5.5502442e-06 1.3829344e-38
0.86250299 -1.4861103 -5.7526995e-06 1.3829344e-38
0.88749409 -1.4861109 -5.8304181e-06 1.3829344e-38
0.91248506 -1.4861102 -5.6062427e-06 1.3829344e-38
0.93821138 -1.4861102 -5.6437084e-06 1.3829344e-38
0.96283484 -1.4861097 -5.6065619e-06 1.3829344e-38
0.98745835 -1.4861101 -5.5006572e-06 1.3829344e-38
1.0124496 -1.4861109 -5.5305886e-06 1.3829344e-38
1.0374407 -1.4861103 -5.7833536e-06 1.3829344e-38
1.0628058 -1.4858379 -5.8026876e-06 1.3829344e-38
1.0874171 -1.4863912 -6.6504335e-06 1.3829344e-38
1.1124145 -1.4861108 -6.2738145e-06 1.3829344e-38
1.1377721 -1.4859753 -6.4092524e-06 1.3829344e-38
1.1623926 -1.4859703 -6.0399375e-06 1.3829344e-38
1.1860313 -1.486856 -6.4526835e-06 1.3829344e-38
1.2009008 -1.4953719 -6.7949295e-06 1.3829344e-38
-1.1339849 -1.4641744 -3.3974648e-06 1.3829344e-38
-1.1126149 -1.4634962 -3.4605755e-06 1.3829344e-38
-1.0875021 -1.4632312 -4.2506626e-06 1.3829344e-38
-1.0623932 -1.4632314 -4.0005234e-06 1.3829344e-38
-1.0376555 -1.4629636 -3.8076851e-06 1.3829344e-38
-1.0125424 -1.4632303 -3.4230095e-06 1.3829344e-38
-0.987427 -1.4633629 -3.0538615e-06 1.3829344e-38
-0.96269518 -1.4630969 -3.3553908e-06 1.3829344e-38
-0.93801618 -1.4639868 -3.5961468e-06 1.3829344e-38
-0.9113245 -1.4639866 -3.4968059e-06 1.3829344e-38
-0.88734424 -1.4629562 -3.8833327e-06 1.3829344e-38
-0.86300063 -1.4634966 -3.8532648e-06 1.3829344e-38
-0.83787394 -1.4632312 -4.3119703e-06 1.3829344e-38
-0.81240141 -1.463231 -4.5674187e-06 1.3829344e-38
-0.78728902 -1.4630978 -4.0110422e-06 1.3829344e-38
-0.76255083 -1.4633639 -3.6919819e-06 1.3829344e-38
-0.7374385 -1.46323 -3.0926296e-06 1.3829344e-38
-0.71233195 -1.4629633 -3.3273416e-06 1.3829344e-38
-0.68758827 -1.4632306 -3.5236862e-06 1.3829344e-38
-0.66247922 -1.4632294 -2.7145659e-06 1.3829344e-38
-0.63736033 -1.4634962 -3.6428955e-06 1.3829344e-38
-0.61263007 -1.4630971 -3.4465509e-06 1.3829344e-38
-0.58751589 -1.4632301 -3.2084329e-06 1.3829344e-38
-0.56278145 -1.4630936 -4.378232e-06 1.3829344e-38
-0.53802824 -1.463231 -4.3119703e-06 1.3829344e-38
-0.51255572 -1.4632316 -4.4379917e-06 1.3829344e-38
-0.48744702 -1.4632317 -4.3406208e-06 1.3829344e-38
-0.46233821 -1.4632308 -3.8760049e-06 1.3829344e-38
-0.43722504 -1.463098 -4.0040295e-06 1.3829344e-38
-0.41248006 -1.4629632 -3.786648e-06 1.3829344e-38
-0.38774756 -1.4634962 -3.5727726e-06 1.3829344e-38
-0.36263284 -1.463231 -4.2063848e-06 1.3829344e-38
-0.3375228 -1.4633641 -3.8287217e-06 1.3829344e-38
-0.31241405 -1.4632308 -4.2234146e-06 1.3829344e-38
-0.28730538 -1.4632318 -4.5790393e-06 1.3829344e-38
-0.26256621 -1.4630976 -4.060128e-06 1.3829344e-38
-0.2378315 -1.4629641 -4.4528174e-06 1.3829344e-38
-0.21271148 -1.463231 -4.2676925e-06 1.3829344e-38
-0.18723893 -1.4632311 -4.3937139e-06 1.3829344e-38
-0.16176638 -1.4632311 -4.5367651e-06 1.3829344e-38
-0.13663192 -1.4634968 -4.0566219e-06 1.3829344e-38
-0.11225903 -1.4633684 -4.0784025e-06 1.3829344e-38
-0.088304095 -1.4628189 -3.9375191e-06 1.3829344e-38
-0.063515 -1.4632307 -3.5899027e-06 1.3829344e-38
-0.038042489 -1.4632317 -4.7615595e-06 1.3829344e-38
-0.012569925 -1.4632318 -4.9420764e-06 1.3829344e-38
0.012902654 -1.4632313 -4.7649655e-06 1.3829344e-38
0.038375229 -1.4632311 -4.737718e-06 1.3829344e-38
0.063847788 -1.4632307 -4.2506626e-06 1.3829344e-38
0.087901786 -1.4629395 -4.2876891e-06 1.3829344e-38
0.11148411 -1.4634969 -4.3546452e-06 1.3829344e-38
0.13662654 -1.4632307 -4.2540687e-06 1.3829344e-38
0.16209912 -1.4632311 -4.6116966e-06 1.3829344e-38
0.18757167 -1.4632312 -4.2779106e-06 1.3829344e-38
0.21304426 -1.4632312 -4.5163292e-06 1.3829344e-38
0.23816936 -1.4629645 -4.8840748e-06 1.3829344e-38
0.26290151 -1.4630984 -4.4177559e-06 1.3829344e-38
0.28763831 -1.4632323 -5.1680731e-06 1.3829344e-38
0.31237915 -1.4633654 -4.9717287e-06 1.3829344e-38
